# .PCD v0.7 - Point Cloud Data file format
VERSION 0.7
FIELDS x y z intensity
SIZE 4 4 4 4
TYPE F F F F
COUNT 1 1 1 1
WIDTH 1704
HEIGHT 1
VIEWPOINT 0 0 0 1 0 0 0
POINTS 1704
DATA ascii
18.614 3.349 3.902 31
17.759001 3.1229999 2.1719999 25
16.733999 2.9920001 2.6289999 44
15.017 2.737 2.8740001 43
17.754 3.2019999 2.49 39
14.862 2.7260001 2.5899999 51
18.5 3.467 3.888 47
17.784 3.2550001 2.1819999 41
15.732 2.927 2.4790001 43
15.139 2.8710001 2.9059999 45
16.782 3.148 2.3599999 42
15.073 2.875 2.635 28
18.548 3.6129999 3.9089999 46
17.614 3.349 2.168 55
15.605 3.0250001 2.4679999 30
16.179001 3.1960001 3.1159999 6
16.365 3.1949999 2.3110001 30
15.186 3.0139999 2.664 30
16.004 3.2449999 3.385 34
16.962999 3.355 2.0969999 27
15.549 3.1270001 2.467 45
16.143 3.309 3.119 47
16.407 3.323 2.3239999 33
15.412 3.174 2.7119999 12
16.292 3.427 3.4560001 26
16.848 3.454 2.0899999 37
15.427 3.2149999 2.4549999 21
16.030001 3.404 3.1059999 35
16.209999 3.4000001 2.3039999 41
15.348 3.2739999 2.7090001 12
16.282 3.5480001 3.464 47
16.434 3.4879999 2.046 36
16.073 3.4690001 2.566 16
16.040001 3.5280001 3.1170001 45
16.412001 3.563 2.3399999 12
15.132 3.3410001 2.6789999 26
16.261 3.6659999 3.47 43
18.91 4.151 2.362 48
15.351 3.4260001 2.4590001 29
16.379 3.7249999 3.194 37
17.466 3.921 2.5 15
15.173 3.464 2.6960001 2
16.561001 3.8610001 3.546 45
19.409 4.4029999 2.4330001 20
15.328 3.536 2.4630001 19
16.122 3.7880001 3.1530001 21
17.549999 4.0679998 2.5209999 42
17.000999 4.0079999 3.0309999 20
16.299999 3.924 3.5009999 43
18.059999 4.2290001 2.273 27
15.005 3.573 2.4200001 12
16.576 4.0219998 3.253 35
15.209 3.6389999 2.1919999 9
18.544001 4.5120001 3.316 14
17.084999 4.244 3.6819999 53
16.802 4.0580001 2.1229999 14
14.873 3.6530001 2.4070001 5
17.416 4.3579998 3.4289999 37
14.803 3.652 2.141 28
18.438 4.6259999 3.309 18
16.858 4.3200002 3.645 35
14.966 3.7260001 1.898 14
14.897 3.7709999 2.4189999 7
16.059999 4.1420002 3.1730001 24
14.906 3.7880001 2.164 40
16.267 4.2049999 2.9300001 6
16.139999 4.2610002 3.5020001 40
15.087 3.868 1.921 17
14.983 3.9070001 2.4419999 24
17.535 4.6589999 3.477 37
15.228 3.9849999 2.2190001 26
18.642 4.9619999 3.369 16
16.007999 4.3509998 3.4860001 45
14.797 3.904 1.891 17
15.791 4.237 2.5840001 39
17.933001 4.9029999 3.569 34
14.857 4.0009999 2.174 3
17.208 4.7129998 3.122 39
16.372999 4.5799999 3.5780001 37
14.548 3.948 1.867 6
16.181999 4.4660001 2.658 41
16.719 4.6279998 2.4560001 13
15.873 4.4689999 2.8900001 9
15.625 4.494 3.427 47
14.5 4.0440001 1.869 23
16.155001 4.5830002 2.664 25
16.690001 4.8249998 3.346 35
14.203 4.0409999 2.0940001 13
13.939 4.0339999 2.5480001 10
6.7709999 2.0009999 1.49 23
14.345 4.1090002 1.8559999 5
16.219 4.7259998 2.684 24
7.217 2.1429999 1.452 14
14.529 4.2449999 2.151 27
13.81 4.1040001 2.5339999 23
6.7010002 2.0339999 1.48 33
14.182 4.1719999 1.8430001 10
15.848 4.7410002 2.6329999 51
7.1609998 2.1830001 1.446 35
14.517 4.3530002 2.158 35
13.833 4.2199998 2.5480001 21
5.4299998 1.692 1.204 37
14.741 4.4489999 1.924 18
12.962 3.9790001 2.1630001 19
7.0549998 2.207 1.431 40
13.69 4.2119999 2.0439999 27
7.309 2.2880001 1.351 0
5.3429999 1.7079999 1.1900001 27
14.269 4.4159999 1.87 13
13.345 4.2010002 2.2360001 8
5.2639999 1.689 1.072 0
12.985 4.0960002 1.947 15
7.2280002 2.3199999 1.342 25
5.3169999 1.743 1.188 47
13.45 4.2680001 1.771 1
7.2550001 2.3410001 1.22 5
5.237 1.723 1.0700001 21
13.059 4.2210002 1.966 8
6.994 2.3 1.304 29
5.2839999 1.776 1.186 39
13.376 4.348 1.7690001 5
7.2220001 2.3889999 1.22 10
5.3639998 1.808 1.101 14
13.433 4.4499998 2.0309999 24
7.0019999 2.3599999 1.3099999 1
5.2579999 1.8099999 1.1849999 45
13.314 4.4330001 1.768 17
7.1659999 2.427 1.215 5
5.2459998 1.811 1.081 39
13.124 4.4510002 1.993 18
6.5770001 2.27 1.2359999 33
5.2199998 1.841 1.181 47
13.204 4.5009999 1.762 7
7.151 2.48 1.2180001 17
5.4530001 1.928 1.128 16
13.637 4.7350001 2.079 9
6.3299999 2.2360001 1.1950001 42
4.875 1.76 1.108 35
12.893 4.4970002 1.728 8
7.1090002 2.523 1.216 11
6.3990002 2.316 1.33 48
13.7 4.8670001 2.098 11
5.2140002 1.885 0.98799998 25
12.68 4.6849999 2.8929999 30
12.755 4.5510001 1.717 12
5.105 1.853 0.87699997 0
4.8540001 1.7970001 1.013 42
13.307 4.835 2.0469999 9
6.9910002 2.585 1.331 36
13.553 5.1230001 3.1059999 25
13.181 4.809 1.7819999 10
5.0929999 1.891 0.87800002 32
8.2869997 3.138 1.7359999 30
7.0359998 2.6140001 1.087 1
4.8270001 1.825 0.92299998 21
5.309 2.052 1.222 0
17.996 6.7119999 2.4449999 25
4.8169999 1.8279999 0.83399999 43
8.2790003 3.2049999 1.743 12
4.8449998 1.839 0.75199997 28
7.2659998 2.809 1.395 23
5.3319998 2.1070001 1.232 2
13.058 4.9770002 1.7819999 0
8.1070004 3.207 1.714 37
4.822 1.87 0.75099999 11
7.888 3.1159999 1.521 0
8.1429996 3.289 1.891 19
4.8540001 1.89 0.66500002 14
5.3600001 2.1240001 0.93699998 35
8.1370001 3.289 1.727 8
4.8800001 1.934 0.764 35
8.1370001 3.2839999 1.576 0
5.954 2.4560001 1.388 39
4.7800002 1.9 0.65799999 44
4.8559999 1.965 0.852 6
5.4390001 2.2460001 1.16 0
4.8569999 1.966 0.764 26
5.244 2.161 1.02 1
5.901 2.487 1.382 50
4.6059999 1.87 0.63700002 44
4.9200001 2.033 0.86699998 6
5.1149998 2.1570001 1.095 33
5.204 2.1500001 0.82200003 39
5.1370001 2.161 1.0039999 0
5.8460002 2.516 1.375 39
4.5009999 1.865 0.625 43
12.537 5.289 2.221 11
5.882 2.5320001 1.265 34
6.0830002 2.5650001 0.96499997 5
4.862 2.0880001 0.954 32
5.1830001 2.277 1.225 36
4.316 1.824 0.602 12
12.612 5.4299998 2.244 9
4.9889998 2.1919999 1.0779999 12
12.986 5.5869999 2.0699999 12
5.309 2.3269999 1.046 33
4.0619998 1.821 0.96399999 9
6.013 2.641 1.074 38
4.6760001 2.096 1.015 1
4.8930001 2.1470001 0.78299999 0
5.098 2.279 1.0089999 7
4.2639999 1.951 1.017 39
4.2849998 1.885 0.60299999 19
6.0170002 2.6960001 1.08 9
4.178 1.91 0.91100001 33
4.8909998 2.1889999 0.78600001 21
5.993 2.733 1.192 0
4.3410001 2.026 1.04 33
4.3889999 1.969 0.62099999 19
6.0209999 2.7509999 1.085 12
4.1100001 1.9170001 0.89999998 30
4.4099998 2.0120001 0.71200001 9
4.3709998 2.033 0.87300003 10
5.132 2.4430001 1.235 21
4.8909998 2.2780001 0.88499999 31
4.7709999 2.2690001 1.049 37
4.3850002 2.04 0.71100003 14
4.224 2.0020001 0.847 20
4.1529999 2.016 1.0039999 29
4.381 2.0420001 0.625 21
4.3260002 2.0539999 0.787 28
4.8839998 2.368 1.079 42
4.3449998 2.0599999 0.708 2
4.369 2.1110001 0.88 43
5.3979998 2.671 1.311 6
6.9689999 3.3099999 0.99900001 12
4.336 2.098 0.792 5
4.4169998 2.1830001 0.98000002 32
4.3280001 2.0910001 0.708 16
4.3369999 2.1359999 0.87800002 32
3.905 1.969 0.95200002 35
6.9629998 3.369 1.002 4
3.9330001 1.9809999 0.87699997 35
7.085 3.487 1.165 2
3.977 1.995 0.80800003 22
4.073 2.0929999 0.99800003 33
13.777 6.7909999 1.992 0
4.0159998 2.017 0.74000001 26
3.9630001 2.033 0.88700002 33
4.0430002 2.027 0.667 19
3.964 2.027 0.80900002 32
5.0890002 2.665 1.253 36
4.0710001 2.043 0.59100002 27
3.997 2.0450001 0.74000001 2
4.1020002 2.1440001 0.92299998 14
4.0359998 2.0610001 0.66900003 10
3.96 2.062 0.81199998 5
4.4260001 2.3610001 1.094 11
17.361 8.8739996 2.5309999 12
4.427 2.3069999 0.82200003 0
3.924 2.089 0.88599998 24
9.3669996 4.8699999 1.5599999 10
4.4000001 2.3329999 0.90600002 1
4.3249998 2.3499999 1.074 25
9.6079998 5 1.4069999 27
4.3909998 2.329 0.81900001 24
4.3140001 2.339 0.97899997 32
4.4029999 2.3299999 0.736 19
4.46 2.408 0.92299998 17
4.4829998 2.4809999 1.119 3
4.3889999 2.325 0.64499998 0
4.3530002 2.3510001 0.81599998 37
4.2470002 2.345 0.96799999 26
4.4499998 2.398 0.74699998 31
4.283 2.355 0.88999999 14
4.7069998 2.652 1.1799999 7
4.381 2.362 0.64600003 18
4.2950001 2.3610001 0.80800003 4
4.165 2.3410001 0.95300001 6
4.3720002 2.398 0.736 30
4.3569999 2.438 0.90899998 21
4.8099999 2.76 1.211 20
4.3930001 2.4100001 0.65100002 46
4.3130002 2.4130001 0.815 22
4.1209998 2.358 0.94700003 8
4.401 2.4560001 0.74400002 30
4.3109999 2.4549999 0.903 26
4.0079999 2.3410001 1.0140001 6
4.3730001 2.49 0.82999998 13
7.3569999 4.2839999 1.699 7
4.4180002 2.5079999 0.75 12
4.336 2.513 0.912 6
5.4060001 3.214 1.373 38
4.3969998 2.497 0.65600002 22
8.026 4.6500001 1.529 23
4.8740001 2.8889999 1.13 0
4.4130001 2.549 0.75199997 31
4.2329998 2.4960001 0.89399999 2
6.1300001 3.7090001 1.5650001 12
6.2659998 3.6199999 0.93900001 23
4.4260001 2.608 0.84600002 5
4.7199998 2.846 1.099 2
4.3940001 2.582 0.75199997 18
4.1999998 2.52 0.89099997 0
4.4200001 2.7219999 1.133 4
6.4640002 3.7980001 0.97100002 15
7.2420001 4.3410001 1.39 9
4.4260001 2.7160001 1.035 14
4.3909998 2.625 0.75400001 19
6.2470002 3.813 1.33 23
4.382 2.7449999 1.128 25
6.3720002 3.8069999 0.96100003 7
7.1409998 4.3540001 1.376 14
4.401 2.747 1.034 19
4.3839998 2.664 0.755 0
4.3649998 2.7090001 0.93300003 4
4.362 2.78 1.128 29
6.2880001 3.8199999 0.95099998 34
7.1129999 4.4109998 1.376 5
4.3530002 2.763 1.026 15
6.2160001 3.842 1.075 33
4.3109999 2.721 0.92500001 34
6.2989998 4.0840001 1.636 7
9.4510002 5.8369999 1.434 4
6.1230001 3.862 1.188 45
4.3979998 2.8399999 1.0420001 17
6.8340001 4.2950001 1.186 2
6.026 3.869 1.298 32
5.7600002 3.799 1.503 26
9.4770002 5.9510002 1.442 4
11.534 7.395 2.247 8
4.395 2.8859999 1.045 0
6.8109999 4.3520002 1.1849999 23
6.125 3.9979999 1.324 25
10.402 6.9770002 2.7249999 11
9.4729996 6.046 1.446 12
6.9590001 4.5359998 1.36 0
6.0209999 4.0209999 1.437 0
6.789 4.4089999 1.1849999 2
7.6199999 5.0580001 1.654 25
5.9359999 4.0489998 1.561 6
16.76 10.873 2.5650001 13
6.9390001 4.598 1.36 6
5.9990001 4.073 1.437 26
6.8109999 4.4949999 1.193 15
7.4120002 5.0009999 1.614 19
6.0710001 4.2119999 1.604 14
9.4530001 6.2319999 1.45 2
6.757 4.5510001 1.329 2
6.0009999 4.1420002 1.443 16
6.7150002 4.5050001 1.179 13
7.1539998 4.9070001 1.563 1
6.0500002 4.2670002 1.604 28
8.2519999 5.5279999 1.2690001 10
7.0440001 4.822 1.39 13
6.8779998 4.8270001 1.66 19
6.711 4.5749998 1.181 1
7.1389999 4.9770002 1.5650001 16
6.1550002 4.414 1.638 17
8.1420002 5.5430002 1.255 3
7.2360001 5.0339999 1.432 4
6.75 4.8140001 1.635 1
8.1879997 5.671 1.446 9
7.0380001 4.9860001 1.548 11
6.5580001 4.7810001 1.753 9
8.9219999 6.1700001 1.378 8
7.8010001 5.5139999 1.548 0
6.5440001 4.744 1.591 1
7.8530002 5.527 1.39 4
6.8520002 4.934 1.512 1
9.9560003 7.3790002 2.671 11
7.9770002 5.605 1.235 16
7.848 5.6370001 1.562 14
6.5219998 4.8060002 1.591 12
8.3590002 5.9770002 1.482 1
6.585 4.8179998 1.457 4
1.882 1.418 0.50599998 11
11.732 8.3739996 1.818 6
8.0129995 5.8470001 1.598 18
6.474 4.848 1.584 5
8.46 6.145 1.5039999 7
6.527 4.8520002 1.449 1
1.855 1.42 0.50099999 25
8.5649996 6.2090001 1.329 7
6.717 4.9790001 1.3430001 5
1.807 1.375 0.44299999 0
8.283 6.112 1.475 28
9.5190001 7.1900001 2.118 0
1.857 1.4450001 0.50300002 12
7.8000002 5.743 1.212 0
8.4280005 6.3470001 1.6900001 17
1.87 1.446 0.46000001 13
8.5869999 6.4349999 1.531 0
8.4659996 6.4959998 1.8890001 12
2.306 1.824 0.62699997 22
12.632 9.4460001 1.965 7
8.5950003 6.5749998 1.726 0
1.846 1.45 0.45500001 20
12.351 9.3999996 2.207 16
1.854 1.4450001 0.414 5
2.2620001 1.817 0.61699998 6
12.485 9.4799995 1.943 1
12.284 9.5430002 2.4719999 11
1.836 1.465 0.454 4
12.917 9.9849997 2.3099999 9
1.853 1.467 0.41499999 22
2.2609999 1.846 0.61900002 17
8.3629999 6.448 1.303 9
1.8559999 1.464 0.37400001 0
10.81 8.7639999 2.684 13
12.835 10.074 2.2980001 17
1.8559999 1.493 0.417 14
2.2390001 1.857 0.61500001 21
8.4280005 6.598 1.312 0
1.8559999 1.488 0.37400001 17
1.9220001 1.5829999 0.47799999 1
12.605 10.047 2.2579999 9
9.6339998 7.868 2.1689999 5
2.233 1.882 0.61500001 10
8.3540001 6.6399999 1.301 0
1.842 1.499 0.37200001 23
1.908 1.596 0.47600001 10
1.853 1.5 0.33199999 16
6.3449998 5.263 1.4299999 19
1.926 1.649 0.53200001 12
12.164 9.816 1.893 24
1.844 1.524 0.373 14
1.895 1.61 0.47400001 15
1.832 1.505 0.32800001 17
1.875 1.579 0.42300001 10
1.8380001 1.598 0.509 12
1.859 1.523 0.289 10
1.863 1.562 0.377 8
1.883 1.625 0.47099999 18
1.832 1.528 0.32800001 14
1.848 1.58 0.41800001 8
2.197 1.941 0.61000001 22
1.845 1.534 0.28600001 20
1.851 1.576 0.375 15
1.915 1.677 0.47999999 14
1.8710001 1.584 0.33500001 14
1.941 1.6849999 0.43900001 2
2.2609999 2.029 0.62900001 21
1.826 1.541 0.28299999 26
1.888 1.632 0.382 14
2.1619999 1.923 0.54299998 13
1.85 1.589 0.331 17
1.891 1.6670001 0.428 7
2.2490001 2.05 0.62699997 1
1.849 1.584 0.28600001 14
1.8940001 1.6619999 0.384 7
2.1359999 1.9299999 0.537 13
1.905 1.661 0.34099999 6
1.911 1.71 0.433 14
2.187 2.0239999 0.611 13
10.784 9.3719997 1.6670001 2
2.02 1.799 0.40900001 3
2.2639999 2.076 0.56999999 11
1.885 1.668 0.33700001 6
2.076 1.886 0.47099999 15
2.2190001 2.086 0.62099999 13
1.88 1.658 0.289 13
5.8200002 5.2620001 1.179 1
2.197 2.046 0.55400002 13
1.853 1.665 0.331 0
2.1570001 1.989 0.48899999 20
2.188 2.0880001 0.61299998 1
1.89 1.691 0.28999999 10
2.1730001 1.993 0.43900001 1
2.1789999 2.0599999 0.55000001 12
2.092 1.9069999 0.373 2
2.142 2.0050001 0.486 10
2.1819999 2.1140001 0.61199999 11
15.181 13.784 2.3269999 2
2.1500001 2.0009999 0.43399999 1
2.171 2.0829999 0.54799998 15
2.0739999 1.918 0.368 13
2.1289999 2.0220001 0.48199999 8
4.8330002 4.7550001 1.358 12
15.561 14.335 2.375 5
2.112 1.995 0.426 10
2.1670001 2.1099999 0.54699999 14
2.066 1.938 0.366 12
2.1370001 2.0599999 0.484 2
6.3130002 6.3039999 1.775 2
14.784 13.814 2.247 2
2.076 1.99 0.41800001 8
2.175 2.1500001 0.54900002 4
2.062 1.9630001 0.36399999 17
5.2020001 5.0879998 1.177 8
4.7940001 4.8600001 1.349 0
2.033 1.926 0.30700001 0
2.0780001 2.02 0.417 4
4.8540001 4.868 1.225 0
2.0469999 1.976 0.36000001 11
5.902 5.8559999 1.3329999 6
4.8060002 4.9450002 1.352 7
2.0280001 1.949 0.30500001 8
5.8499999 5.7709999 1.173 12
4.8039999 4.8899999 1.212 1
2.0309999 1.988 0.35600001 11
4.9499998 4.9819999 1.1160001 11
6.2509999 6.527 1.7589999 6
1.9960001 1.946 0.29800001 12
5.8400002 5.8429999 1.1670001 12
4.8060002 4.9619999 1.21 0
2.0179999 2.0039999 0.352 2
2.027 2.0699999 0.456 0
6.1069999 6.4720001 1.7180001 0
1.982 1.959 0.294 16
2.0439999 2.0739999 0.40700001 1
11.383 11.923 2.8629999 2
2.0190001 2.0339999 0.35100001 24
1.954 2.023 0.43799999 0
6.1490002 6.612 1.729 0
1.791 1.795 0.264 13
2.0190001 2.0769999 0.40000001 7
1.579 1.678 0.396 1
1.716 1.753 0.296 20
4.7620001 5.0009999 1.066 0
1.551 1.692 0.435 7
1.732 1.76 0.25299999 14
5.4109998 5.645 1.069 1
1.592 1.716 0.39899999 10
1.71 1.77 0.29300001 15
1.619 1.724 0.361 7
1.539 1.7029999 0.43099999 10
1.71 1.761 0.248 8
1.646 1.7410001 0.32300001 5
1.568 1.714 0.39199999 14
1.687 1.77 0.287 9
1.603 1.7309999 0.35600001 14
1.553 1.743 0.43399999 1
1.716 1.7920001 0.24600001 12
1.635 1.7539999 0.31900001 14
1.647 1.825 0.41 9
1.666 1.773 0.28200001 17
1.61 1.762 0.35600001 9
1.733 1.973 0.484 11
1.697 1.796 0.241 18
1.641 1.783 0.31799999 12
1.74 1.955 0.43200001 15
1.663 1.793 0.27900001 13
1.74 1.9299999 0.38299999 17
1.7180001 1.983 0.47799999 10
1.699 1.822 0.23899999 12
1.7410001 1.9170001 0.336 15
1.728 1.9680001 0.42699999 10
1.739 1.899 0.289 15
1.742 1.9579999 0.38100001 2
10.468 12.248 2.908 3
16.985001 18.458 2.3610001 4
1.701 1.899 0.32600001 5
4.6529999 5.3699999 1.145 0
1.7309999 1.916 0.285 2
4.5689998 5.2049999 0.99400002 6
9.6490002 11.441 2.671 2
11.964 13.17 1.642 1
1.6950001 1.9170001 0.322 6
10.685 12.495 2.6170001 6
1.712 1.92 0.27900001 1
4.5830002 5.2880001 0.99000001 8
9.6440001 11.59 2.6589999 7
16.537001 18.440001 2.2379999 1
10.95 12.539 2.0639999 2
4.527 5.3629999 1.102 5
33.210999 37.709999 5.3600001 19
4.572 5.3439999 0.98100001 10
4.4029999 5.3600001 1.2079999 1
16.355 18.466999 2.1800001 2
10.871 12.606 2.0280001 2
4.4029999 5.2820001 1.0650001 2
13.931 16.018999 2.221 2
4.5009999 5.3270001 0.958 8
4.4330001 5.4660001 1.21 7
14.007 16.013 1.837 3
13.734 16.122999 2.5369999 17
4.3940001 5.3369999 1.056 10
13.83 16.098 2.1760001 22
4.4569998 5.3400002 0.94 11
4.3530002 5.4349999 1.181 11
11.095 12.841 1.429 2
4.881 5.8000002 0.89099997 1
4.5100002 5.5450001 1.075 8
10.937 12.883 1.696 1
4.5159998 5.4749999 0.94300002 12
4.2620001 5.3860002 1.149 10
11.073 12.969 1.4 3
4.869 5.855 0.87800002 1
4.7480001 5.908 1.123 17
4.862 5.796 0.74199998 13
4.4920001 5.5100002 0.92900002 13
4.2379999 5.4190001 1.1339999 7
10.968 12.997 1.359 18
10.608 12.903 1.8890001 9
4.309 5.4239998 1.0089999 1
4.8319998 5.8270001 0.72600001 1
4.5679998 5.6680002 0.93300003 16
4.2069998 5.4419999 1.117 1
4.8429999 5.8060002 0.58700001 9
10.474 12.886 1.84 16
4.277 5.4439998 0.99199998 11
4.6259999 5.6409998 0.68300003 0
4.3870001 5.5029998 0.88599998 13
5.5240002 7.2259998 1.454 3
4.816 5.8390002 0.56999999 14
4.6599998 5.796 0.80500001 1
4.2410002 5.4569998 0.97299999 11
4.5999999 5.671 0.66600001 10
4.309 5.4640002 0.85799998 14
5.5689998 7.362 1.452 3
4.777 5.8540001 0.551 0
4.5900002 5.7690001 0.77999997 14
4.21 5.4749999 0.95499998 0
4.5679998 5.6919999 0.648 14
4.2870002 5.493 0.84200001 12
5.6009998 7.4819999 1.4450001 4
4.6630001 5.7750001 0.52399999 0
4.3940001 5.5799999 0.73400003 14
4.177 5.4860001 0.935 9
4.5219998 5.6919999 0.62699997 15
4.3099999 5.5770001 0.83399999 1
4.039 5.4460001 1.03 8
4.6259999 5.789 0.505 15
4.368 5.6020002 0.71600002 11
7.4099998 9.8249998 1.636 2
4.5149999 5.7410002 0.61199999 12
4.2820001 5.5939999 0.81400001 13
4.1500001 5.6479998 1.046 1
4.625 5.8439999 0.48899999 13
7.1240001 9.2220001 1.145 0
4.2069998 5.6290002 0.91500002 0
4.645 5.961 0.61299998 14
4.2719998 5.631 0.79799998 0
4.1160002 5.651 1.023 1
4.6589999 5.9439998 0.47600001 21
12.051 15.743 1.895 17
4.1900001 5.6539998 0.89700001 16
4.6630001 6.039 0.59899998 0
11.921 15.847 2.187 14
4.1100001 5.6890001 1.008 9
4.6300001 5.96 0.456 15
7.0830002 9.3299999 1.0880001 0
4.1799998 5.6859999 0.88 2
7.0749998 9.2410002 0.88300002 3
28.68 38.432999 5.1560001 16
4.0809999 5.691 0.98500001 11
12.081 15.685 1.1440001 17
7.0250001 9.3269997 1.053 4
7.3930001 10.13 1.528 3
7.0560002 9.29 0.85399997 2
6.8829999 9.2919998 1.211 0
4.0799999 5.7290001 0.96899998 7
12.008 15.718 1.089 23
7.0209999 9.3920002 1.024 2
7.3309999 10.113 1.485 3
7.0539999 9.3570004 0.82499999 1
28.226999 38.363998 4.8530002 14
4.5970001 6.493 1.072 3
11.954 15.767 1.035 20
8.2709999 11.14 1.173 10
7.164 9.9440002 1.4220001 2
7.0749998 9.4519997 0.79799998 1
28.028999 38.333 4.6999998 12
4.5669999 6.4860001 1.045 7
11.912 15.822 0.98100001 14
7.1069999 9.632 0.97799999 0
7.1269999 9.9449997 1.3839999 4
7.0419998 9.4680004 0.764 2
27.917999 38.390999 4.5599999 8
4.5089998 6.434 1.011 7
7.1009998 9.4949999 0.55400002 2
7.026 9.5760002 0.935 2
7.1529999 10.029 1.3559999 2
7.0229998 9.4969997 0.73100001 0
7.1760001 9.9169998 1.14 0
4.4520001 6.3769999 0.977 8
7.0830002 9.526 0.52100003 10
7.0110002 9.6029997 0.90200001 5
7.5419998 10.616 1.3940001 2
7.0040002 9.5209999 0.69700003 2
7.052 9.7860003 1.087 1
4.382 6.296 0.94 7
7.0669999 9.5559998 0.48699999 0
6.9489999 9.559 0.861 6
7.2069998 10.177 1.2970001 1
6.994 9.5509996 0.66399997 9
7.0190001 9.7740002 1.048 3
4.395 6.3280001 0.92000002 2
12.762 17.339001 0.81900001 3
6.9720001 9.625 0.83099997 1
4.513 6.388 0.78899997 0
4.4629998 6.118 0.40200001 0
7.0120001 9.79 1.013 3
4.408 6.3559999 0.89999998 7
4.4819999 6.1149998 0.266 0
4.4580002 6.1719999 0.509 7
4.4980001 6.3779998 0.764 2
4.4590001 6.132 0.38 2
4.4980001 6.2940001 0.62699997 1
4.4330001 6.395 0.88 7
4.474 6.1230001 0.244 1
4.4489999 6.1729999 0.486 9
4.4860001 6.3670001 0.73799998 7
4.4549999 6.1409998 0.35800001 9
4.4770002 6.2719998 0.60100001 7
4.4390001 6.4029999 0.85699999 7
4.4559999 6.1160002 0.22 11
4.4450002 6.177 0.463 10
4.4840002 6.3649998 0.713 8
4.4359999 6.1259999 0.333 12
4.454 6.2420001 0.574 7
4.4450002 6.4050002 0.833 6
4.4419999 6.1079998 0.197 15
4.4320002 6.1630001 0.43900001 10
4.4759998 6.348 0.68800002 8
4.4380002 6.1360002 0.31099999 13
4.4559999 6.2420001 0.551 7
4.454 6.4060001 0.80900002 7
4.4359999 6.1079998 0.17399999 15
4.4320002 6.1620002 0.41600001 10
4.4689999 6.3299999 0.662 8
4.4330001 6.131 0.28799999 14
4.447 6.224 0.52600002 7
4.4629998 6.402 0.78500003 8
4.4289999 6.1009998 0.152 17
4.4310002 6.1560001 0.39199999 10
4.4660001 6.3119998 0.63700002 8
4.4369998 6.1329999 0.26499999 16
4.4359999 6.197 0.50099999 7
4.4829998 6.4089999 0.76200002 9
4.4320002 6.1040001 0.12899999 17
4.4349999 6.152 0.36899999 11
4.467 6.2940001 0.61199999 8
4.434 6.1209998 0.242 19
4.4419999 6.1900001 0.47799999 8
4.4809999 6.3800001 0.736 8
4.4330001 6.0999999 0.106 20
4.441 6.1469998 0.347 11
4.4640002 6.2659998 0.58700001 8
4.4349999 6.112 0.219 19
4.448 6.178 0.454 10
4.4860001 6.3559999 0.70999998 7
4.4299998 6.0869999 0.083999999 22
4.4429998 6.132 0.32300001 12
4.4720001 6.25 0.56300002 7
4.4460001 6.1110001 0.19599999 16
4.447 6.1529999 0.43000001 11
4.4970002 6.335 0.68599999 7
4.4429998 6.0910001 0.061999999 22
4.46 6.132 0.301 13
4.4619999 6.2049999 0.537 7
4.4530001 6.1009998 0.17399999 15
4.4689999 6.1550002 0.40799999 9
4.5250001 6.335 0.66399997 0
4.447 6.0780001 0.039000001 21
4.4679999 6.1170001 0.278 6
4.4699998 6.1810002 0.51300001 2
4.4590001 6.086 0.152 3
4.4829998 6.1420002 0.38600001 1
8.2320004 11.448 1.16 2
4.4660001 6.0809999 0.017000001 16
11.685 15.916 0.66799998 3
4.4809999 6.1560001 0.48899999 0
11.84 16.082001 0.34299999 9
6.994 9.5249996 0.56400001 2
8.1730003 11.283 1.1059999 5
4.4879999 6.0840001 -0.0040000002 15
12.614 17.089001 0.65700001 14
6.9889998 9.5349998 0.72600001 4
11.755 15.884 0.28299999 11
7.033 9.5179996 0.53200001 3
7.027 9.6239996 0.91100001 7
4.5359998 6.118 -0.027000001 13
11.802 15.889 0.55400002 12
7.0050001 9.4870005 0.69 1
4.467 6.0019999 0.085000001 0
7.0840001 9.5190001 0.49900001 4
6.9899998 9.493 0.86699998 5
4.4910002 6.0240002 -0.048 13
11.742 15.702 0.49399999 10
28.628 38.459999 2.671 14
4.506 6.0149999 0.064000003 1
7.1279998 9.5080004 0.46599999 9
7.0489998 9.4899998 0.83700001 8
4.4460001 5.927 -0.068000004 15
11.905 15.806 0.44400001 19
11.937 15.903 1.052 11
4.5689998 6.0560002 0.044 0
7.1360002 9.4420004 0.43200001 11
7.0809999 9.4429998 0.80199999 1
4.4260001 5.8610001 -0.088 20
11.931 15.717 0.38699999 23
11.939 15.765 0.99299997 20
4.6230001 6.0840001 0.023 9
7.197 9.4420004 0.40099999 16
11.959 15.793 1.293 20
4.4109998 5.7989998 -0.107 16
12.002 15.681 0.33399999 23
12.006 15.705 0.93800002 24
4.5560002 5.948 0.0020000001 22
7.2309999 9.4020004 0.368 9
12.02 15.712 1.237 22
4.4029999 5.744 -0.126 15
4.5960002 5.9530001 0.107 20
12.106 15.684 0.88800001 21
4.5650001 5.9089999 -0.017000001 23
4.6100001 5.9380002 0.213 0
12.121 15.68 1.189 16
3.1760001 4.1090002 -0.104 0
4.6090002 5.9159999 0.086000003 21
4.645 5.9580002 0.31799999 12
4.5830002 5.881 -0.035999998 24
4.6199999 5.895 0.193 19
4.6459999 5.9460001 0.433 23
3.1470001 4.0370002 -0.116 6
4.6329999 5.8899999 0.067000002 24
4.6490002 5.901 0.29800001 19
4.6350002 5.8909998 -0.056000002 17
4.6589999 5.8839998 0.17399999 23
4.6729999 5.915 0.41299999 14
4.4380002 5.6420002 -0.182 16
4.7270002 5.9510002 0.048999999 1
4.684 5.881 0.27900001 20
1.625 2.046 -0.026000001 4
4.6890001 5.8610001 0.156 18
4.6880002 5.8660002 0.39300001 16
1.645 2.0710001 -0.072999999 1
4.8530002 6.0469999 0.029999999 3
4.7360001 5.881 0.26100001 20
1.624 2.0250001 -0.032000002 2
12.27 15.173 0.359 2
4.7389998 5.862 0.377 14
1.641 2.046 -0.079000004 4
4.9549999 6.1100001 0.012 11
13.902 17.07 0.71200001 16
4.5999999 5.6739998 -0.109 20
13.807 16.886999 0.347 22
20.677999 25.278 1.5549999 32
1.602 1.977 -0.082999997 8
1.659 2.0239999 -0.001 0
12.336 14.976 0.58200002 5
1.686 2.0580001 -0.046 5
7.618 9.2130003 0.163 4
20.702 25.004999 1.473 35
1.7 2.076 -0.093999997 9
1.677 2.023 -0.0080000004 11
12.415 14.894 0.53600001 1
1.6619999 2.006 -0.050999999 6
7.6739998 9.1739998 0.13600001 9
14.114 16.841 0.94800001 1
1.686 2.036 -0.098999999 17
1.692 2.0190001 -0.014 1
11.195 13.271 0.442 1
1.691 2.0179999 -0.057 12
7.6669998 9.059 0.108 7
20.969 24.709999 1.326 10
1.6059999 1.918 -0.098999999 15
1.697 2.0009999 -0.018999999 1
11.261 13.189 0.40400001 1
1.652 1.95 -0.061000001 13
7.6490002 8.9309998 0.082000002 1
13.809 16.069 0.82300001 25
1.609 1.9 -0.104 15
1.726 2.0109999 -0.025 3
11.317 13.091 0.366 2
1.707 1.992 -0.068999998 14
1.709 1.972 0.012 2
11.445 13.151 0.64099997 18
1.603 1.872 -0.109 14
1.725 1.9859999 -0.030999999 9
11.557 13.202 0.336 16
1.6799999 1.936 -0.072999999 20
11.681 13.309 0.048 26
11.502 13.047 0.60299999 2
1.6900001 1.95 -0.119 19
1.765 2.007 -0.037 12
11.676 13.172 0.30199999 20
1.784 2.0320001 -0.082000002 10
1.7079999 1.9220001 0.0020000001 0
14.958 16.747999 0.736 6
1.557 1.775 -0.114 15
1.73 1.943 -0.041000001 15
11.765 13.103 0.266 20
1.7309999 1.948 -0.083999999 18
1.728 1.92 -0.0020000001 20
11.77 13.008 0.542 20
1.587 1.7869999 -0.12 15
1.784 1.979 -0.046999998 21
1.772 1.948 0.035 5
1.64 1.822 -0.083999999 20
1.818 1.994 -0.0080000004 12
11.849 12.924 0.50800002 4
1.182 1.3150001 -0.092 18
1.669 1.8279999 -0.048 20
1.773 1.925 0.029999999 17
1.712 1.878 -0.092 20
1.72 1.863 -0.012 21
1.852 1.994 0.074000001 0
1.354 1.4859999 -0.109 16
1.569 1.696 -0.048999999 17
1.7589999 1.8839999 0.024 20
1.649 1.786 -0.093000002 20
1.709 1.827 -0.016000001 18
1.7589999 1.869 0.064999998 21
1.62 1.757 -0.134 20
1.728 1.845 -0.059 24
1.743 1.842 0.02 22
1.665 1.78 -0.097000003 16
1.697 1.791 -0.02 28
1.749 1.832 0.059999999 34
1.702 1.822 -0.14399999 17
1.609 1.6950001 -0.057999998 25
1.743 1.818 0.015 43
1.6799999 1.773 -0.101 20
1.674 1.743 -0.024 31
1.7589999 1.818 0.056000002 62
1.6109999 1.702 -0.139 22
1.663 1.729 -0.064000003 22
1.758 1.809 0.011 39
1.636 1.705 -0.102 23
1.763 1.811 -0.028999999 48
1.771 1.8049999 0.052000001 29
1.673 1.745 -0.148 23
1.626 1.669 -0.066 34
1.771 1.798 0.0070000002 51
1.602 1.647 -0.103 23
1.745 1.7690001 -0.033 42
1.8099999 1.821 0.048 24
1.615 1.6619999 -0.145 17
1.598 1.618 -0.068000004 26
1.7970001 1.8 0.003 19
1.701 1.725 -0.112 23
1.604 1.604 -0.033 26
1.846 1.832 0.045000002 26
1.447 1.469 -0.132 19
1.6440001 1.642 -0.072999999 24
1.796 1.775 0 19
1.626 1.627 -0.11 24
1.739 1.716 -0.039000001 27
1.901 1.86 0.041999999 25
1.585 1.5880001 -0.148 22
1.674 1.649 -0.077 22
1.837 1.79 -0.003 24
1.7 1.679 -0.118 30
1.6339999 1.59 -0.039999999 26
1.849 1.784 0.037 29
1.642 1.622 -0.155 26
1.664 1.617 -0.079000004 22
1.8380001 1.766 -0.0070000002 57
1.668 1.624 -0.118 22
1.636 1.571 -0.043000001 28
1.854 1.7640001 0.034000002 49
1.619 1.5779999 -0.155 22
1.627 1.5599999 -0.079999998 18
1.779 1.686 -0.0089999996 42
1.688 1.6210001 -0.122 16
1.686 1.596 -0.046999998 38
1.863 1.748 0.029999999 69
1.433 1.377 -0.139 41
1.6569999 1.567 -0.083999999 19
1.859 1.738 -0.013 45
1.5829999 1.499 -0.117 25
1.7 1.587 -0.050000001 41
1.8839999 1.743 0.027000001 53
1.598 1.516 -0.15700001 26
1.6849999 1.572 -0.088 21
1.941 1.789 -0.017000001 18
1.607 1.502 -0.12 26
1.848 1.702 -0.057 17
1.928 1.7589999 0.025 0
1.642 1.535 -0.163 29
1.716 1.5779999 -0.092 28
1.824 1.658 -0.018999999 23
1.665 1.534 -0.127 28
1.643 1.4910001 -0.052999999 25
2.0769999 1.868 0.023 23
1.599 1.475 -0.16 36
1.656 1.502 -0.090000004 27
1.995 1.788 -0.023 17
1.735 1.577 -0.134 27
1.865 1.67 -0.063000001 27
2.086 1.85 0.02 28
1.74 1.582 -0.176 16
1.9960001 1.785 -0.112 15
1.898 1.677 -0.025 20
1.7690001 1.585 -0.138 24
1.91 1.686 -0.066 23
19.184999 16.771999 0.164 5
1.653 1.482 -0.169 34
1.865 1.6440001 -0.106 19
2.2030001 1.919 -0.032000002 21
1.7180001 1.517 -0.13600001 29
1.803 1.569 -0.064999998 30
1.924 1.658 0.013 0
1.648 1.456 -0.17 26
1.76 1.53 -0.102 19
2.345 2.0139999 -0.035999998 4
1.6160001 1.408 -0.12899999 32
2.0450001 1.7539999 -0.075999998 24
10.813 9.1859999 0.063000001 14
1.452 1.265 -0.15099999 31
1.813 1.554 -0.107 28
2.401 2.0320001 -0.039999999 20
1.698 1.457 -0.13699999 22
2.0409999 1.726 -0.078000002 17
1.955 1.637 0.0089999996 30
1.73 1.4859999 -0.18000001 33
1.901 1.605 -0.113 17
2.3280001 1.942 -0.041000001 0
1.9170001 1.622 -0.15700001 22
1.878 1.566 -0.072999999 10
2.125 1.7539999 0.0070000002 0
1.5039999 1.273 -0.15800001 36
1.876 1.562 -0.113 15
2.1619999 1.778 -0.041000001 20
1.794 1.497 -0.148 27
2.5899999 2.1289999 -0.103 6
14.952 12.163 0.035999998 15
1.689 1.409 -0.178 26
1.905 1.563 -0.117 11
2.181 1.768 -0.043000001 11
1.827 1.502 -0.152 26
1.825 1.478 -0.074000001 14
7.9530001 6.3759999 0.011 1
1.631 1.341 -0.17299999 36
2.075 1.678 -0.12899999 15
7.6719999 6.1290002 -0.15899999 29
2.066 1.674 -0.17299999 18
1.952 1.558 -0.081 12
8.5530005 6.7579999 0.003 2
1.7539999 1.421 -0.18700001 32
1.915 1.527 -0.12 12
1.817 1.4299999 -0.039000001 15
1.908 1.524 -0.16 25
1.969 1.549 -0.082999997 9
8.427 6.5609999 -0.0040000002 12
1.806 1.442 -0.193 22
2.1989999 1.727 -0.139 20
7.6240001 5.915 -0.171 33
2.1489999 1.6900001 -0.182 25
2.552 1.978 -0.11 5
8.5050001 6.526 -0.011 25
1.665 1.3099999 -0.178 16
2.1040001 1.628 -0.134 24
2.5309999 1.9349999 -0.057999998 1
1.8380001 1.425 -0.156 14
2.1849999 1.669 -0.094999999 19
8.5950003 6.4980001 -0.017999999 30
1.545 1.197 -0.16599999 25
2.5009999 1.9069999 -0.161 21
2.6270001 1.979 -0.061999999 4
1.6109999 1.2309999 -0.13699999 17
2.533 1.9069999 -0.112 10
8.6739998 6.461 -0.024 26
1.73 1.321 -0.186 26
2.244 1.686 -0.145 18
7.6300001 5.6630001 -0.186 33
2.1329999 1.605 -0.182 24
6.158 4.566 -0.27500001 33
8.7329998 6.4089999 -0.030999999 27
1.964 1.478 -0.211 42
2.4860001 1.84 -0.162 20
7.6009998 5.5580001 -0.189 29
2.0009999 1.483 -0.17200001 30
3.7839999 2.7639999 -0.171 22
8.7360001 6.316 -0.037 28
1.956 1.45 -0.211 29
2.217 1.6160001 -0.145 17
2.2479999 1.62 -0.057 2
2.3659999 1.728 -0.20299999 25
2.553 1.837 -0.116 6
8.9250002 6.3569999 -0.041999999 32
1.836 1.34 -0.198 32
2.2650001 1.627 -0.149 11
2.2609999 1.605 -0.057999998 14
2.28 1.64 -0.19599999 33
8.6140003 6.0430002 -0.045000002 34
1.855 1.334 -0.2 49
2.3 1.627 -0.15099999 22
5.2280002 3.654 -0.138 3
2.3729999 1.681 -0.205 29
2.303 1.608 -0.106 2
8.1420002 5.6269999 -0.046999998 29
1.85 1.3099999 -0.2 24
2.3210001 1.617 -0.153 31
4.2220001 2.9059999 -0.113 0
2.076 1.448 -0.17900001 23
2.3729999 1.632 -0.11 21
8.1459999 5.5440001 -0.050999999 49
1.768 1.233 -0.191 45
2.3599999 1.62 -0.156 18
6.1599998 4.177 -0.167 9
1.885 1.295 -0.163 26
8.2349997 5.5190001 -0.055 43
1.832 1.258 -0.197 27
2.5610001 1.7309999 -0.17 20
4.3509998 2.905 -0.119 2
2.075 1.404 -0.17900001 16
2.4979999 1.666 -0.117 1
8.4090004 5.5510001 -0.059 51
1.674 1.131 -0.18000001 27
2.3640001 1.573 -0.15700001 25
2.3770001 1.563 -0.064999998 13
1.78 1.186 -0.154 26
2.6429999 1.7359999 -0.124 31
8.5389996 5.5500002 -0.063000001 34
1.688 1.124 -0.182 28
2.529 1.6569999 -0.168 24
2.4159999 1.564 -0.067000002 4
1.646 1.079 -0.142 24
2.401 1.552 -0.113 2
8.4510002 5.408 -0.064999998 43
1.6849999 1.104 -0.18099999 33
2.4300001 1.568 -0.162 25
2.4159999 1.54 -0.067000002 11
1.868 1.206 -0.161 21
2.4030001 1.529 -0.114 32
8.4510002 5.3239999 -0.067000002 46
1.704 1.099 -0.183 34
2.3959999 1.522 -0.16 36
2.4230001 1.52 -0.068000004 9
1.864 1.1849999 -0.161 20
2.3900001 1.498 -0.113 20
8.4449997 5.237 -0.068999998 50
1.681 1.067 -0.18000001 26
2.3670001 1.479 -0.15700001 26
1.811 1.133 -0.156 23
2.549 1.572 -0.121 16
4.2550001 2.5969999 -0.035999998 0
1.781 1.112 -0.19 29
2.4530001 1.5089999 -0.163 20
2.4189999 1.471 -0.068999998 0
1.851 1.1390001 -0.15899999 20
4.0209999 2.441 -0.191 32
4.2620001 2.5610001 -0.035999998 7
1.817 1.117 -0.193 26
3.7820001 2.29 -0.25099999 30
4.5999999 2.7520001 -0.131 40
1.7920001 1.086 -0.154 20
4.4520001 2.632 -0.039000001 0
1.906 1.153 -0.20200001 26
2.4579999 1.465 -0.163 21
4.4330001 2.6099999 -0.127 29
2.0610001 1.228 -0.176 21
2.382 1.4 -0.113 0
4.3429999 2.527 -0.037999999 11
1.83 1.089 -0.19400001 25
2.4449999 1.433 -0.162 0
4.217 2.4430001 -0.121 38
2.184 1.281 -0.186 28
4.1589999 2.4059999 -0.197 33
4.362 2.497 -0.039000001 25
1.824 1.068 -0.193 30
3.7160001 2.1429999 -0.24600001 28
4.1680002 2.3759999 -0.119 36
2.1689999 1.251 -0.185 23
4.1880002 2.3840001 -0.198 41
4.29 2.4159999 -0.037999999 36
1.715 0.98799998 -0.18000001 26
3.7650001 2.1359999 -0.248 38
4.0830002 2.289 -0.117 39
2.174 1.234 -0.184 28
4.098 2.2939999 -0.193 34
4.2379999 2.348 -0.037999999 39
1.812 1.026 -0.19 32
2.382 1.329 -0.156 22
4.0409999 2.2290001 -0.115 33
2.2149999 1.2359999 -0.18700001 1
3.9000001 2.1470001 -0.183 33
4.1939998 2.2850001 -0.037999999 32
1.841 1.026 -0.192 35
2.372 1.302 -0.155 1
4.0830002 2.2149999 -0.116 34
2.405 1.3200001 -0.20299999 21
3.6400001 1.971 -0.17 29
4.1929998 2.247 -0.037999999 39
1.995 1.0930001 -0.208 26
3.681 1.987 -0.23999999 33
4.1490002 2.2130001 -0.118 31
2.378 1.283 -0.2 24
4.086 2.1760001 -0.191 42
4.29 2.2609999 -0.039000001 32
2.198 1.184 -0.228 50
2.2969999 1.2180001 -0.149 0
4.2080002 2.207 -0.119 30
2.3540001 1.249 -0.197 29
4.046 2.118 -0.18799999 31
4.2010002 2.177 -0.037999999 37
2.2119999 1.171 -0.229 38
2.29 1.1950001 -0.148 16
4.177 2.154 -0.118 34
2.3310001 1.216 -0.19400001 27
3.925 2.0190001 -0.182 35
4.1609998 2.1199999 -0.037 40
2.3729999 1.235 -0.244 27
2.326 1.193 -0.15000001 0
4.2550001 2.1559999 -0.119 37
3.3570001 1.721 -0.27900001 28
4.2090001 2.128 -0.19400001 45
4.2220001 2.1129999 -0.037 43
2.4779999 1.267 -0.25400001 29
3.8310001 1.9299999 -0.24600001 36
4.2880001 2.1359999 -0.119 37
2.346 1.182 -0.19400001 25
3.9590001 1.9680001 -0.182 32
4.296 2.1140001 -0.037 38
2.3280001 1.17 -0.237 34
2.9419999 1.457 -0.18799999 35
4.2909999 2.0999999 -0.119 35
2.96 1.465 -0.243 24
3.9790001 1.943 -0.182 33
4.2930002 2.075 -0.037 36
2.4089999 1.189 -0.244 28
3.8080001 1.852 -0.242 33
3.971 1.909 -0.109 31
3.296 1.602 -0.27000001 21
3.793 1.8200001 -0.17200001 27
4.3099999 2.0469999 -0.035999998 33
2.3740001 1.151 -0.23999999 32
3.812 1.821 -0.241 38
3.7690001 1.78 -0.103 29
3.734 1.783 -0.30399999 39
4.224 1.99 -0.191 49
4.3759999 2.0420001 -0.035999998 33
2.3310001 1.11 -0.234 28
3.865 1.814 -0.243 37
4.2839999 1.987 -0.116 36
3.753 1.76 -0.30399999 33
3.97 1.837 -0.178 24
4.4229999 2.026 -0.035999998 34
2.9749999 1.39 -0.29800001 40
3.773 1.739 -0.236 35
4.3010001 1.959 -0.116 35
2.3050001 1.061 -0.186 30
3.8340001 1.742 -0.171 32
4.5009999 2.0239999 -0.035999998 36
3.1140001 1.429 -0.31 38
3.904 1.766 -0.243 31
4.4330001 1.982 -0.118 32
3.5940001 1.624 -0.28799999 37
4.303 1.919 -0.19 33
4.4159999 1.95 -0.035 37
2.9979999 1.35 -0.29699999 42
3.997 1.775 -0.24699999 33
4.408 1.9349999 -0.116 32
3.7880001 1.6799999 -0.30199999 37
4.3340001 1.897 -0.19 37
4.5479999 1.971 -0.035 28
2.9170001 1.289 -0.28799999 33
3.8870001 1.693 -0.23899999 34
4.3969998 1.8940001 -0.115 37
3.8069999 1.6569999 -0.30199999 36
3.9100001 1.679 -0.171 32
4.5450001 1.933 -0.034000002 33
2.744 1.189 -0.26899999 33
3.8740001 1.656 -0.237 33
4.4310002 1.872 -0.115 34
3.8169999 1.63 -0.301 37
4.3759999 1.844 -0.189 36
4.5510001 1.899 -0.033 18
3.2060001 1.364 -0.31299999 40
4.0770001 1.71 -0.24699999 27
4.5 1.865 -0.115 29
3.7820001 1.584 -0.29699999 37
4.4699998 1.847 -0.192 31
4.552 1.863 -0.032000002 1
3.46 1.443 -0.336 42
4.0349998 1.659 -0.243 32
4.4809999 1.822 -0.113 32
3.8210001 1.569 -0.29800001 36
4.5229998 1.8329999 -0.193 45
4.5500002 1.826 -0.030999999 2
3.6340001 1.4859999 -0.35100001 34
3.8789999 1.564 -0.23199999 34
4.5799999 1.825 -0.115 14
3.846 1.548 -0.29800001 43
4.2789998 1.7 -0.18099999 22
4.6069999 1.812 -0.029999999 9
3.54 1.419 -0.34 41
3.8840001 1.535 -0.23100001 27
4.4289999 1.7309999 -0.11 9
3.8510001 1.5190001 -0.29699999 36
4.1869998 1.63 -0.176 25
4.658 1.796 -0.028999999 0
3.641 1.429 -0.34799999 50
3.9449999 1.528 -0.233 32
6.1560001 2.3570001 -0.15099999 31
3.9119999 1.512 -0.30000001 35
4.1290002 1.575 -0.17200001 5
4.625 1.747 -0.028000001 0
3.711 1.427 -0.352 43
4.0190001 1.524 -0.236 27
4.7129998 1.767 -0.114 0
3.9200001 1.484 -0.29800001 33
5.2649999 1.9680001 -0.21699999 27
14.051 5.1999998 -0.082000002 26
3.747 1.411 -0.354 44
4.0159998 1.492 -0.234 34
6.3439999 2.3310001 -0.15099999 29
3.8940001 1.443 -0.29499999 39
4.921 1.801 -0.20100001 27
8.1309996 2.9460001 -0.045000002 1
3.7249999 1.373 -0.34999999 43
3.9400001 1.433 -0.228 35
5.9710002 2.148 -0.141 1
4.0430002 1.467 -0.30399999 37
4.7680001 1.7079999 -0.193 31
12.576 4.4640002 -0.067000002 0
3.7290001 1.347 -0.34799999 44
3.9879999 1.4220001 -0.229 31
8.2519999 2.9130001 -0.192 5
4.0560002 1.4450001 -0.303 33
4.737 1.6670001 -0.191 27
13.991 4.882 -0.071999997 15
3.7709999 1.339 -0.35100001 42
4.1030002 1.439 -0.235 31
8.2559996 2.865 -0.19 1
4.0170002 1.4069999 -0.29899999 35
4.8720002 1.687 -0.19499999 28
14.065 4.8249998 -0.068999998 2
3.875 1.353 -0.359 43
4.0869999 1.409 -0.23199999 33
8.1520004 2.7809999 -0.186 0
3.9059999 1.345 -0.289 39
4.7179999 1.605 -0.18700001 26
12.297 4.1479998 -0.057999998 12
3.7219999 1.278 -0.34299999 42
4.1609998 1.41 -0.235 34
11.78 3.9519999 -0.266 48
4.1339998 1.399 -0.30500001 34
4.8449998 1.62 -0.191 26
20.458 6.783 -0.092 23
3.944 1.33 -0.36199999 44
4.1869998 1.3940001 -0.235 33
11.705 3.858 -0.26100001 38
4.118 1.37 -0.30199999 39
4.8920002 1.608 -0.191 34
12.974 4.2259998 -0.056000002 4
3.9549999 1.311 -0.36199999 41
4.3309999 1.4170001 -0.242 31
11.614 3.7609999 -0.25600001 46
4.2350001 1.3839999 -0.30899999 36
4.8189998 1.556 -0.18700001 34
12.272 3.928 -0.050000001 1
4.0419998 1.316 -0.368 40
4.3169999 1.387 -0.23999999 33
11.646 3.7060001 -0.25400001 56
4.2620001 1.368 -0.31 38
4.9590001 1.573 -0.191 15
12.004 3.7739999 -0.046 0
3.9330001 1.257 -0.35699999 42
4.5349998 1.432 -0.25099999 33
11.744 3.6689999 -0.25299999 46
4.4809999 1.4119999 -0.324 41
5.0079999 1.5599999 -0.192 29
13.346 4.1199999 -0.048999999 4
4.151 1.303 -0.375 45
4.6230001 1.433 -0.25400001 33
5.408 1.659 -0.115 2
4.3179998 1.336 -0.31099999 38
4.5770001 1.399 -0.17399999 41
14.157 4.2909999 -0.048999999 0
4.1069999 1.265 -0.36899999 43
4.677 1.423 -0.25600001 37
12.129 3.652 -0.25600001 43
4.6459999 1.411 -0.333 37
5.0139999 1.5039999 -0.189 0
14.41 4.2870002 -0.046 4
4.2340002 1.28 -0.37900001 39
4.6409998 1.385 -0.252 41
12.417 3.668 -0.259 37
4.77 1.421 -0.34 46
7.164 2.1099999 -0.26899999 38
21.598 6.303 -0.064999998 24
4.0479999 1.2 -0.361 44
4.7649999 1.395 -0.25799999 37
12.62 3.658 -0.25999999 40
4.7340002 1.3839999 -0.336 49
7.0910001 2.0480001 -0.264 30
21.809999 6.244 -0.061000001 22
3.9820001 1.158 -0.354 50
4.9070001 1.409 -0.264 37
12.949 3.6819999 -0.264 41
4.7129998 1.351 -0.333 53
7.0780001 2.0039999 -0.26100001 30
21.982 6.1719999 -0.057 23
3.9430001 1.124 -0.34900001 47
4.9759998 1.401 -0.266 41
13.064 3.641 -0.26300001 39
4.4650002 1.2539999 -0.31400001 41
5.0380001 1.398 -0.185 0
22.198999 6.1090002 -0.052999999 22
3.681 1.029 -0.324 40
4.9689999 1.3710001 -0.264 37
13.29 3.6300001 -0.264 38
4.0339999 1.1109999 -0.28200001 37
7.9920001 2.174 -0.29100001 15
21.621 5.8309999 -0.046999998 20
3.4400001 0.94199997 -0.301 39
5.1849999 1.402 -0.27399999 38
13.475 3.6070001 -0.264 43
4.0970001 1.105 -0.285 44
6.836 1.822 -0.24699999 13
22.764999 6.0159998 -0.044 24
3.677 0.986 -0.32100001 48
5.1339998 1.359 -0.27000001 21
13.717 3.596 -0.266 37
4.0599999 1.072 -0.28099999 37
6.7199998 1.7539999 -0.241 25
21.007 5.434 -0.035999998 2
3.6530001 0.95899999 -0.31799999 47
6.6199999 1.717 -0.34599999 48
13.983 3.589 -0.26800001 37
4.0539999 1.048 -0.28 39
21.367001 5.4120002 -0.032000002 3
3.6340001 0.93400002 -0.315 41
6.3439999 1.61 -0.33000001 39
14.035 3.526 -0.26499999 40
4.3559999 1.102 -0.29899999 36
22.909 5.6789999 -0.029999999 12
3.6949999 0.92900002 -0.31900001 45
6.197 1.539 -0.31999999 43
14.246 3.5020001 -0.266 38
4.099 1.0140001 -0.28 11
6.5809999 1.609 -0.23100001 19
19.003 4.6059999 -0.021 1
3.3970001 0.83499998 -0.292 41
6.2220001 1.511 -0.31999999 41
12.753 3.0650001 -0.235 1
8.8380003 2.1129999 -0.308 13
14.973 3.549 -0.013 1
3.6370001 0.87400001 -0.31099999 45
6.197 1.471 -0.317 41
12.784 3.0039999 -0.233 3
4.3730001 1.034 -0.296 35
9.0059996 2.1040001 -0.31099999 14
22.718 5.2639999 -0.015 2
3.289 0.77200001 -0.28 35
6.1360002 1.423 -0.31200001 43
14.852 3.4100001 -0.26699999 30
5.5 1.271 -0.37099999 42
6.1079998 1.3940001 -0.20900001 1
15.817 3.579 -0.0070000002 0
3.8570001 0.884 -0.32699999 44
5.9520001 1.348 -0.301 39
15.059 3.3759999 -0.26699999 28
5.4359999 1.226 -0.36500001 59
9.1870003 2.0469999 -0.31299999 13
22.893999 5.059 -0.0060000001 16
3.77 0.84399998 -0.31900001 38
6.026 1.332 -0.303 38
15.22 3.3310001 -0.266 33
5.4109998 1.191 -0.36199999 47
5.2540002 1.142 -0.177 2
19.003 4.099 -0.001 2
3.5139999 0.76700002 -0.296 40
5.7750001 1.245 -0.289 29
15.428 3.2939999 -0.26699999 26
4.98 1.069 -0.331 51
9.3900003 1.992 -0.315 12
19.048 4.006 0.0020000001 9
3.4389999 0.73199999 -0.289 48
5.5419998 1.166 -0.27599999 32
15.652 3.2579999 -0.26699999 32
5.1570001 1.08 -0.34200001 41
9.4809999 1.96 -0.31600001 13
19.606001 4.02 0.0060000001 12
3.915 0.81199998 -0.32699999 36
5.711 1.17 -0.28299999 33
14.254 2.892 -0.23999999 1
5.0710001 1.034 -0.33500001 48
9.5830002 1.931 -0.317 12
19.589001 3.914 0.0089999996 11
3.8940001 0.787 -0.324 41
6.0419998 1.206 -0.29699999 18
16.028 3.1670001 -0.26699999 29
4.9460001 0.98199999 -0.32499999 43
9.6409998 1.891 -0.317 11
17.474001 3.398 0.012 2
3.9289999 0.773 -0.32600001 43
6.0159998 1.169 -0.29499999 16
16.221001 3.119 -0.266 27
4.842 0.93599999 -0.317 43
9.7860003 1.867 -0.31900001 13
19.294001 3.651 0.017000001 49
4.0170002 0.76899999 -0.33199999 46
6.2810001 1.186 -0.30599999 13
16.393 3.066 -0.266 27
4.52 0.84899998 -0.294 36
9.8669996 1.831 -0.31900001 13
19.379 3.5669999 0.021 61
4.0929999 0.76099998 -0.33700001 41
16.452 2.9909999 -0.26300001 28
4.559 0.83200002 -0.296 34
9.948 1.794 -0.31999999 12
19.537001 3.4920001 0.024 10
4.3200002 0.77999997 -0.35499999 22
6.3140001 1.126 -0.30500001 15
16.698999 2.948 -0.264 24
5.1030002 0.90499997 -0.33000001 19
10.11 1.77 -0.32300001 13
19.500999 3.385 0.028000001 9
4.3280001 0.759 -0.354 20
6.4099998 1.109 -0.308 12
16.886 2.8929999 -0.26300001 28
5.1479998 0.88499999 -0.331 18
9.9090004 1.683 -0.31400001 23
19.528999 3.289 0.030999999 1
4.3410001 0.73799998 -0.354 20
6.447 1.082 -0.308 12
15.42 2.562 -0.237 8
5.1599998 0.86000001 -0.331 17
9.5120001 1.566 -0.30000001 49
19.638 3.204 0.035 1
4.3270001 0.713 -0.352 21
6.4959998 1.056 -0.30899999 13
17.393 2.7980001 -0.264 21
5.1529999 0.83200002 -0.329 16
9.6359997 1.536 -0.30199999 45
23.120001 3.654 0.045000002 1
4.3319998 0.69099998 -0.35100001 19
6.5349998 1.028 -0.30899999 12
11.054 1.721 -0.16599999 6
5.1459999 0.80400002 -0.32699999 15
9.6239996 1.484 -0.29899999 45
19.851 3.0350001 0.041999999 1
4.3429999 0.66900003 -0.35100001 19
6.573 1 -0.31 14
10.533 1.586 -0.156 36
5.151 0.77700001 -0.32699999 15
9.5059996 1.4170001 -0.294 48
19.761999 2.9200001 0.045000002 7
4.3439999 0.64700001 -0.34999999 16
6.6420002 0.97600001 -0.31099999 14
10.552 1.534 -0.154 39
5.1630001 0.75199997 -0.32600001 15
9.7670002 1.405 -0.30000001 45
11.198 1.597 0.027000001 1
4.3410001 0.62400001 -0.34900001 15
6.6750002 0.94599998 -0.31200001 13
10.125 1.42 -0.146 41
5.1609998 0.72500002 -0.32499999 14
9.7530003 1.352 -0.29699999 43
11.388 1.566 0.029999999 5
4.3400002 0.60000002 -0.34799999 15
6.7249999 0.91799998 -0.31299999 14
9.9980001 1.351 -0.14300001 40
5.1719999 0.69999999 -0.324 13
9.5699997 1.278 -0.28999999 46
11.371 1.505 0.030999999 8
4.3379998 0.57800001 -0.34599999 19
6.763 0.889 -0.31299999 15
9.8809996 1.284 -0.139 43
5.1820002 0.67400002 -0.324 14
9.4219999 1.21 -0.28400001 36
11.088 1.411 0.032000002 20
4.3319998 0.55400002 -0.345 16
6.789 0.85699999 -0.31299999 14
9.8170004 1.226 -0.13699999 41
5.204 0.64999998 -0.324 15
9.4980001 1.171 -0.285 32
11.306 1.381 0.035 47
4.3390002 0.53200001 -0.34400001 20
6.8590002 0.82999998 -0.315 14
9.5670004 1.146 -0.132 34
5.2010002 0.62300003 -0.32300001 14
9.4230003 1.113 -0.28099999 40
11.378 1.332 0.037 11
4.3470001 0.51099998 -0.34400001 16
6.9089999 0.801 -0.31600001 13
9.7040005 1.112 -0.132 39
5.217 0.59799999 -0.32300001 13
9.3999996 1.062 -0.278 36
11.331 1.2690001 0.037999999 41
4.342 0.48800001 -0.34299999 14
6.9359999 0.76800001 -0.31600001 13
9.5649996 1.048 -0.12899999 39
5.237 0.57300001 -0.32300001 12
9.2290001 0.99599999 -0.27200001 35
10.827 1.158 0.037999999 37
4.3520002 0.46599999 -0.34299999 15
6.9530001 0.73500001 -0.315 12
9.3529997 0.97799999 -0.124 33
5.2360001 0.546 -0.322 11
8.9879999 0.92400002 -0.26300001 41
11.13 1.1339999 0.041000001 47
4.3540001 0.44400001 -0.34200001 15
7.0009999 0.704 -0.31600001 12
9.2989998 0.92400002 -0.122 37
5.2360001 0.51899999 -0.32100001 12
8.9099998 0.87099999 -0.25999999 40
9.4759998 0.917 0.035999998 39
4.3540001 0.42199999 -0.34099999 16
7.0229998 0.67000002 -0.31600001 14
9.3009996 0.87800002 -0.121 34
5.237 0.493 -0.31999999 13
8.7790003 0.81300002 -0.25400001 43
9.4449997 0.86699998 0.037 41
4.3520002 0.39899999 -0.34 19
7.0819998 0.63999999 -0.31799999 12
9.2189999 0.824 -0.119 35
5.2459998 0.46599999 -0.31999999 14
8.6999998 0.76200002 -0.25099999 42
9.5480003 0.82800001 0.037999999 41
4.3559999 0.377 -0.34 16
7.1139998 0.60699999 -0.31799999 12
9.3030005 0.78399998 -0.119 39
5.25 0.44 -0.31999999 13
8.4890003 0.69999999 -0.244 38
9.4390001 0.77100003 0.039000001 38
4.3670001 0.35600001 -0.34 14
7.1589999 0.574 -0.31900001 13
9.2209997 0.73000002 -0.116 38
5.2649999 0.41499999 -0.31999999 15
8.4309998 0.653 -0.241 39
9.4829998 0.72799999 0.041000001 34
4.3559999 0.33199999 -0.338 16
7.25 0.54500002 -0.322 15
8.9029999 0.66100001 -0.111 41
5.2659998 0.38699999 -0.31900001 14
8.4130001 0.60900003 -0.23899999 39
9.6359997 0.69099998 0.041999999 32
4.3600001 0.31 -0.338 19
7.3150001 0.51300001 -0.324 17
8.9619999 0.62 -0.111 45
5.27 0.361 -0.31799999 13
8.4569998 0.56999999 -0.23899999 39
9.4589996 0.63099998 0.043000001 39
4.355 0.28799999 -0.33700001 17
7.3400002 0.477 -0.324 22
8.6120005 0.55199999 -0.106 45
5.2639999 0.33399999 -0.317 15
8.4650002 0.52700001 -0.23899999 41
9.1800003 0.56699997 0.041999999 25
4.3499999 0.26499999 -0.336 15
7.3499999 0.44100001 -0.324 26
8.5550003 0.50800002 -0.104 53
5.2729998 0.30899999 -0.317 14
8.427 0.48500001 -0.237 46
9.007 0.51300001 0.041999999 26
4.3460002 0.244 -0.33500001 15
7.348 0.405 -0.32300001 26
8.4960003 0.46200001 -0.102 45
5.283 0.28299999 -0.317 14
8.4209995 0.442 -0.235 47
9.1929998 0.47799999 0.044 36
4.3569999 0.222 -0.33500001 16
7.4029999 0.37099999 -0.324 31
8.5030003 0.41999999 -0.102 49
5.2969999 0.257 -0.317 15
8.0509996 0.382 -0.22400001 42
9.2189999 0.433 0.045000002 25
4.3559999 0.2 -0.33500001 17
7.506 0.338 -0.32800001 32
8.5249996 0.37799999 -0.101 42
5.309 0.23 -0.317 15
8.2159996 0.34900001 -0.228 37
4.3579998 0.178 -0.33399999 18
7.401 0.296 -0.32300001 38
8.5340004 0.336 -0.1 47
5.3379998 0.205 -0.31900001 15
8.0299997 0.301 -0.222 36
8.6789999 0.32100001 0.044 39
4.3600001 0.156 -0.33399999 18
7.3169999 0.25600001 -0.31799999 38
8.5570002 0.294 -0.1 45
5.348 0.178 -0.31900001 14
8.1129999 0.26300001 -0.22400001 43
8.7550001 0.28099999 0.045000002 41
4.3629999 0.134 -0.33399999 21
7.2839999 0.21799999 -0.31600001 49
8.5620003 0.252 -0.098999999 41
5.362 0.15099999 -0.31900001 15
8.3140001 0.229 -0.228 37
8.5690002 0.23199999 0.045000002 53
4.3569999 0.111 -0.333 18
7.3000002 0.182 -0.31600001 52
8.5710001 0.20900001 -0.097999997 52
5.369 0.125 -0.31900001 15
8.0979996 0.182 -0.222 38
8.6780005 0.192 0.046 48
4.3629999 0.090000004 -0.333 17
7.2600002 0.145 -0.31400001 59
8.5950003 0.167 -0.097999997 44
5.3740001 0.097999997 -0.31900001 22
8.3529997 0.146 -0.228 34
8.5889997 0.148 0.046 43
4.3540001 0.067000002 -0.33199999 16
7.2420001 0.108 -0.31200001 49
8.5129995 0.124 -0.096000001 33
5.3829999 0.071000002 -0.31900001 16
8.2480001 0.103 -0.22499999 39
8.8559999 0.108 0.048 45
4.369 0.045000002 -0.333 18
7.0830002 0.071000002 -0.30500001 48
8.6009998 0.082000002 -0.097000003 44
5.4109998 0.044 -0.31999999 16
8.1820002 0.061000001 -0.222 41
8.7720003 0.064000003 0.048 52
4.3769999 0.024 -0.333 17
7.0539999 0.035 -0.303 49
8.4779997 0.039000001 -0.094999999 57
5.4060001 0.017000001 -0.31900001 17
8.1040001 0.02 -0.22 50
8.7259998 0.021 0.048999999 43
4.3860002 0.001 -0.333 19
6.9580002 0 -0.29899999 54
8.6169996 -0.0020000001 -0.096000001 51
5.4520001 -0.0089999996 -0.322 17
8.1599998 -0.018999999 -0.221 43
8.9230003 -0.022 0.050000001 54
4.388 -0.02 -0.333 17
6.7789998 -0.033 -0.29100001 46
