# .PCD v0.7 - Point Cloud Data file format
VERSION 0.7
FIELDS x y z intensity
SIZE 4 4 4 4
TYPE F F F F
COUNT 1 1 1 1
WIDTH 1665
HEIGHT 1
VIEWPOINT 0 0 0 1 0 0 0
POINTS 1665
DATA ascii
19.643 -5.0159998 1.719 55
19.51 -4.9060001 0.72600001 23
19.406 -4.902 1.37 50
19.695 -4.9990001 2.072 43
19.535999 -4.8449998 0.38100001 31
19.167999 -4.7680001 1.031 47
19.438999 -4.8559999 1.694 57
19.753 -4.8590002 0.73000002 44
19.42 -4.7969999 1.365 50
20.149 -5.0009999 2.112 5
19.483 -4.7249999 0.375 13
19.92 -4.8449998 1.066 44
19.378 -4.7329998 1.682 54
19.754 -4.75 0.72500002 46
19.476 -4.704 1.363 43
33.672001 -8.1689997 3.516 7
19.565001 -4.638 0.37200001 45
19.809 -4.71 1.054 37
19.968 -4.7659998 1.726 0
19.742001 -4.6399999 0.71899998 34
19.672001 -4.6420002 1.37 57
33.730999 -7.994 3.51 2
19.443001 -4.5040002 0.36500001 46
19.872 -4.6160002 1.052 23
19.796 -4.6149998 1.705 40
19.452 -4.4660001 0.70300001 43
19.816999 -4.5669999 1.374 24
33.800999 -7.823 3.5050001 30
19.591 -4.4320002 0.36300001 50
19.627001 -4.4510002 1.033 45
19.913 -4.533 1.7079999 21
19.518 -4.375 0.69999999 47
19.833 -4.4629998 1.369 12
33.804001 -7.6360002 3.493 13
19.841 -4.381 0.36399999 33
19.961 -4.4190001 1.045 45
33.57 -7.4569998 2.868 38
19.972 -4.369 0.71200001 53
19.827999 -4.3530002 1.362 25
33.244999 -7.3249998 3.424 28
19.764 -4.2589998 0.35800001 20
19.726999 -4.2589998 1.027 0
33.731998 -7.3070002 2.8710001 48
19.628 -4.1890001 0.69499999 49
33.224998 -7.1139998 2.273 9
33.327 -7.1599998 3.4200001 28
32.324001 -6.7919998 0.57800001 33
30.969 -6.5190001 1.605 21
33.59 -7.0939999 2.848 38
19.788 -4.1160002 0.69499999 33
35.578999 -7.4239998 2.424 37
33.377998 -6.9879999 3.414 32
32.196999 -6.592 0.56900001 27
19.665001 -4.0339999 1.0140001 9
33.443001 -6.8800001 2.825 34
20.104 -4.073 0.70200002 20
35.606998 -7.237 2.415 25
33.485001 -6.8280001 3.4130001 40
20.464001 -4.0819998 0.35699999 2
30.528999 -6.098 1.566 37
33.595001 -6.7280002 2.8280001 28
20.459 -4.0370002 0.70899999 71
20.535 -4.0640001 1.387 0
33.320999 -6.612 3.3859999 40
20.451 -3.97 0.352 81
20.487 -3.9820001 1.045 101
20.527 -4 1.721 87
20.468 -3.9289999 0.70499998 1
20.51 -3.948 1.38 80
20.559999 -3.967 2.082 98
32.014999 -6.0469999 0.54500002 34
31.094999 -5.8790002 1.579 32
33.624001 -6.3709998 2.8099999 35
32.004002 -5.973 1.095 39
33.055 -6.1849999 2.214 39
33.969002 -6.3720002 3.4300001 46
20.445999 -3.753 0.34299999 104
20.48 -3.763 1.035 77
20.563999 -3.7850001 1.712 7
20.497999 -3.7179999 0.69599998 92
20.509001 -3.7279999 1.368 103
20.559999 -3.7449999 2.069 66
31.827999 -5.6750002 0.528 29
32.298 -5.7620001 1.624 42
20.549 -3.6730001 1.705 57
32.066002 -5.6469998 1.082 41
32.793999 -5.7859998 2.1800001 31
34.397999 -6.079 3.4519999 41
31.747 -5.4949999 0.51999998 42
32.291 -5.5900002 1.6160001 40
32.625999 -5.6560001 2.698 40
32.263 -5.5100002 1.082 19
33.029999 -5.652 2.187 28
32.411999 -5.5549998 3.243 6
32.012001 -5.3720002 0.51899999 35
32.984001 -5.5359998 1.643 45
33.41 -5.6129999 2.7539999 47
32.412998 -5.3670001 1.08 42
32.408001 -5.375 2.1370001 42
33.153 -5.5029998 3.3069999 41
31.922001 -5.1900001 0.51099998 38
33.011002 -5.3670001 1.636 42
33.091999 -5.3850002 2.7190001 45
32.598 -5.2259998 1.079 44
33.766998 -5.4200001 2.2190001 43
31.972 -5.1360002 3.1800001 48
31.841 -5.0120001 0.50300002 36
32.743 -5.151 1.6160001 43
33.222 -5.2290001 2.721 55
31.896 -4.9460001 1.049 42
33.028999 -5.1269999 2.1619999 45
33.106998 -5.1430001 3.2839999 52
31.476 -4.79 0.49200001 12
32.103001 -4.882 1.577 7
33.027 -5.0250001 2.697 45
32.514999 -4.8740001 1.063 45
32.555 -4.8829999 2.1229999 39
32.894001 -4.934 3.2539999 44
31.194 -4.585 0.48100001 44
33.125 -4.8649998 1.62 45
33.264 -4.8839998 2.7079999 44
31.988001 -4.6279998 1.039 41
32.823002 -4.75 2.1340001 39
32.659 -4.7249999 3.2219999 40
31.466 -4.4629998 0.47999999 46
32.345001 -4.5809999 1.576 40
33.303001 -4.7140002 2.7030001 40
32.019001 -4.467 1.034 42
33.723999 -4.704 2.1849999 44
31.996 -4.46 3.148 49
31.645 -4.3239999 0.477 46
32.666 -4.4559999 1.585 42
33.138 -4.5170002 2.6819999 53
31.806999 -4.2719998 1.022 39
33.226002 -4.4619999 2.145 45
33.403 -4.4790001 3.279 42
31.598 -4.1550002 0.47099999 45
32.870998 -4.3140001 1.5880001 43
33.272999 -4.3600001 2.6849999 44
31.99 -4.131 1.021 40
32.400002 -4.1830001 2.085 15
32.993999 -4.25 3.23 31
31.327999 -3.9590001 0.46200001 39
32.240002 -4.0630002 1.551 39
33.214001 -4.178 2.6730001 39
31.815001 -3.9460001 1.01 41
32.301998 -4 2.072 25
33.407001 -4.1279998 3.263 43
32.082001 -3.8889999 0.46799999 45
33.118 -4.0019999 1.587 47
34.259998 -4.132 2.75 48
31.882999 -3.789 1.007 39
33.556999 -3.9820001 2.1459999 44
34.400002 -4.0700002 3.352 44
31.413 -3.6470001 0.45300001 14
32.077999 -3.7119999 1.531 39
33.812 -3.901 2.707 60
32.514999 -3.697 1.021 42
33.952999 -3.855 2.165 42
34.34 -3.882 3.3380001 44
32.293999 -3.585 0.461 35
32.450001 -3.5869999 1.544 22
33.841 -3.7279999 2.7019999 45
32.132999 -3.49 1.0039999 42
32.146 -3.4820001 2.0439999 37
33.439999 -3.6070001 3.244 38
32.580002 -3.45 0.46000001 37
33.981998 -3.5810001 1.61 45
33.827 -3.552 2.694 41
32.589001 -3.372 1.013 49
31.476 -3.247 1.995 23
33.694 -3.4590001 3.2620001 35
31.864 -3.2119999 0.44499999 45
34.071999 -3.4170001 1.609 45
33.875999 -3.3800001 2.6919999 46
33.785 -3.323 1.045 43
35.081001 -3.4389999 2.2179999 36
35.060001 -3.414 3.3870001 47
31.632 -3.029 0.43700001 43
33.407001 -3.178 1.572 41
34.370998 -3.2520001 2.7249999 31
34.287998 -3.198 1.0549999 54
33.566002 -3.1170001 2.1159999 42
34.672001 -3.198 3.3429999 45
33.066002 -2.9990001 0.45300001 49
33.903 -3.052 1.59 47
34.380001 -3.076 2.7190001 40
34.354 -3.029 1.053 53
33.396999 -2.9289999 2.0999999 41
34.258999 -2.983 3.2969999 44
32.911999 -2.816 0.44600001 53
32.896 -2.7939999 1.538 14
34.048 -2.8699999 2.687 45
34.344002 -2.8529999 1.0470001 57
33.289001 -2.75 2.0880001 43
34.179001 -2.796 3.283 40
32.397999 -2.609 0.435 6
33.324001 -2.6619999 1.553 42
33.909 -2.6830001 2.671 45
34.064999 -2.658 1.034 44
33.438 -2.5910001 2.092 40
33.130001 -2.54 3.1760001 51
33.933998 -2.563 0.45199999 60
33.361 -2.4920001 1.55 43
33.616001 -2.4879999 2.642 44
33.994999 -2.4790001 1.028 43
33.229 -2.404 2.0739999 41
33.429001 -2.391 3.2 34
33.820999 -2.382 0.44600001 52
33.074001 -2.3039999 1.5319999 34
32.910999 -2.2690001 2.5829999 43
34.345001 -2.3310001 1.034 55
33.199001 -2.234 2.0680001 39
33.474998 -2.22 3.1989999 41
33.514 -2.1919999 0.43799999 49
33.792999 -2.184 1.561 43
33.345001 -2.125 2.612 44
34.555 -2.1719999 1.036 46
33.298 -2.0699999 2.069 39
33.596001 -2.056 3.2060001 41
34.005001 -2.0550001 0.44100001 53
34.601002 -2.0580001 1.594 45
32.602001 -1.9119999 2.549 24
34.583 -2 1.033 46
32.924 -1.8789999 2.0420001 40
33.561001 -1.882 3.198 33
34.055 -1.8839999 0.43799999 51
33.467999 -1.822 1.538 43
32.838001 -1.7589999 2.563 36
34.52 -1.8200001 1.027 45
32.905998 -1.711 2.0369999 40
33.235001 -1.691 3.1619999 33
33.480999 -1.686 0.42699999 44
33.790001 -1.67 1.549 42
32.893002 -1.592 2.563 26
34.376999 -1.641 1.0190001 54
33.416 -1.567 2.0639999 41
33.471001 -1.5319999 3.1800001 33
33.737999 -1.531 0.42699999 44
33.533001 -1.4859999 1.534 43
32.889999 -1.425 2.559 31
34.419998 -1.471 1.017 43
32.957001 -1.378 2.0320001 40
33.417 -1.359 3.171 36
33.537998 -1.351 0.421 41
34.141998 -1.342 1.558 40
32.855 -1.257 2.553 25
34.169998 -1.286 1.007 46
34.153 -1.256 2.1029999 43
33.363998 -1.184 3.1619999 37
33.708 -1.191 0.421 42
34.02 -1.166 1.549 44
32.695999 -1.0829999 2.5369999 8
34.257 -1.119 1.006 46
34.080002 -1.082 2.095 42
34.532001 -1.05 3.2690001 12
34.012001 -1.033 0.421 40
34.766998 -1.015 1.58 43
35.624001 -1 2.7609999 45
34.596001 -0.958 1.013 45
34.223 -0.912 2.0999999 42
34.834999 -0.88300002 3.2950001 18
34.145 -0.86400002 0.41999999 34
35.238998 -0.852 1.599 38
35.203999 -0.81 2.7249999 48
35.129002 -0.79400003 1.026 46
34.314999 -0.74199998 2.1029999 40
34.771 -0.70499998 3.2850001 30
34.702999 -0.70700002 0.42500001 55
34.876999 -0.66900003 1.579 6
34.727001 -0.62099999 2.6849999 44
35.625999 -0.62800002 1.038 47
35.838001 -0.59500003 2.1930001 46
35.807999 -0.54000002 3.3800001 9
35.632 -0.54900002 0.433 40
146.125 -2.062 6.6069999 58
36.234001 -0.465 2.799 12
35.346001 -0.44800001 1.027 47
35.789001 -0.41100001 2.188 45
35.984001 -0.375 0.43599999 21
36.48 -0.333 1.647 3
37.755001 -0.287 1.094 1
34.916 -0.227 2.132 28
94.343002 -0.51300001 1.136 32
98.709999 -0.26199999 2.8559999 32
97.227997 -0.048 1.165 33
170.709 0.148 7.6869998 62
98.445 0.22499999 2.8440001 25
34.993999 0.126 2.132 4
97.918999 0.43700001 1.17 29
170.793 1.255 4.9250002 81
98.188004 0.92900002 1.1670001 33
170.98199 2.1029999 4.9229999 56
170.791 2.457 2.023 9
171.073 2.95 4.9180002 69
170.92101 3.309 2.0190001 89
171.19501 3.816 4.914 73
171.299 4.665 4.9109998 63
171.19501 5.0100002 2.007 20
123.564 4.23 1.446 38
171.61099 6.3769999 4.9109998 59
52.188999 2.046 0.60799998 20
171.741 7.2399998 4.9089999 56
51.938 2.2809999 0.602 17
64.365997 3.02 1.836 8
51.688999 2.526 0.59799999 29
57.580002 2.9860001 1.641 8
51.778999 2.7880001 0.597 14
49.618999 2.9159999 0.57200003 7
50.002998 3.0899999 1.423 7
49.326 3.1429999 0.56800002 16
50.132 3.3469999 1.427 5
48.995998 3.3629999 0.56400001 20
49.611 3.5599999 1.4119999 14
83.040001 6.1129999 5.0349998 30
83.222 6.3249998 7.8169999 13
49.098999 3.615 0.56400001 14
79.736 6.2010002 6.1199999 32
50.064999 3.8399999 1.425 21
79.546997 6.2519999 4.8239999 53
79.612 6.4559999 7.4790001 43
47.212002 3.71 0.54299998 6
79.352997 6.3969998 3.5420001 46
79.379997 6.5710001 6.0949998 53
48.055 3.925 1.368 5
79.225998 6.6259999 4.8049998 49
79.281998 6.8319998 7.4520001 45
46.952 3.921 0.53899997 10
48.799999 4.1760001 2.178 2
79.060997 6.9439998 6.0739999 51
48.189999 4.177 1.372 16
78.914001 6.993 4.7880001 50
78.870003 7.1929998 7.4159999 38
47.318001 4.1869998 0.54299998 14
48.347 4.3790002 2.1600001 13
78.330002 7.277 6.0190001 58
44.512001 4.0780001 1.267 3
76.601997 7.1729999 4.6500001 3
75.369003 7.2579999 7.0890002 8
44.499001 4.158 0.51099998 4
75.182999 7.1830001 3.3599999 8
74.117996 7.257 5.698 43
43.646 4.217 1.244 19
72.415001 7.342 6.816 45
44.02 4.3299999 0.50599998 11
71.621002 7.2020001 3.2019999 9
70.336998 7.2420001 5.4109998 10
45.044998 4.5770001 1.284 5
66.953003 6.941 4.0679998 16
68.222 7.2600002 6.4250002 10
44.873001 4.638 0.51499999 6
48.438999 5.1129999 2.1670001 2
64.410004 6.954 4.9580002 13
44.952999 4.79 1.2819999 18
66.596001 7.2389998 4.0500002 11
65.726997 7.3299999 6.1929998 41
44.747002 4.8470001 0.51499999 25
44.624001 4.9320002 1.998 8
64.339996 7.2729998 4.9549999 14
46.411999 5.177 1.325 3
63.844002 7.2620001 3.8840001 4
63.959 7.4559999 6.0310001 11
43.499001 4.9260001 0.50099999 9
63.769001 7.369 2.8559999 21
61.895 7.3099999 4.7709999 8
49.554001 5.7729998 1.416 19
61.240002 7.2719998 3.7279999 6
61.493 7.4809999 5.803 7
44.603001 5.2740002 0.514 7
61.294998 7.3909998 2.7479999 14
59.395 7.3130002 4.5819998 11
49.084 5.9640002 1.403 12
59.09 7.3140001 3.6010001 6
54.347 6.8889999 5.132 51
43.407001 5.348 0.50099999 9
57.992001 7.2810001 2.602 5
57.152 7.3270001 4.4109998 9
43.291 5.4759998 1.239 6
57.141998 7.3590002 3.4849999 70
52.403999 6.908 4.9520001 10
43.756001 5.6069999 0.50599998 4
56.995998 7.4419999 2.559 12
55.095001 7.3429999 4.257 6
51.719002 6.7989998 1.482 30
55.386002 7.4130001 3.3800001 33
52.34 7.1659999 4.9520001 23
48.59 6.4699998 0.56199998 7
55.355999 7.506 2.4890001 7
53.151001 7.3509998 4.1100001 7
51.620998 7.0450001 1.48 33
52.91 7.348 3.233 61
51.881001 7.369 4.9109998 15
48.214001 6.658 0.55900002 6
52.862999 7.4320002 2.3789999 17
51.261002 7.3499999 3.9679999 9
51.543999 7.2919998 1.48 21
51.198002 7.3670001 3.131 64
50.141998 7.375 4.7519999 8
49.016998 7.013 0.56999999 4
51.094002 7.441 2.3010001 15
49.653999 7.3720002 3.848 7
49.952 7.3150001 1.436 9
49.298 7.3429999 3.017 8
48.547001 7.3889999 4.6059999 7
49.111 7.2719998 0.57099998 11
48.75 7.3449998 2.198 9
48.719002 7.4780002 3.779 16
48.441002 7.3369999 1.3940001 7
48.637001 7.4910002 2.98 13
46.994999 7.3909998 4.4629998 7
47.827 7.3189998 0.55699998 7
47.217999 7.349 2.132 5
47.028999 7.4580002 3.651 56
46.964001 7.349 1.354 8
46.956001 7.467 2.8800001 18
45.698002 7.421 4.3429999 8
46.334999 7.322 0.542 8
45.756001 7.3530002 2.0669999 7
45.126999 7.3860002 3.5079999 15
45.495998 7.3460002 1.313 9
44.884998 7.3660002 2.7550001 12
44.601002 7.4710002 4.2449999 56
45.014 7.3369999 0.52700001 14
41.548 6.8839998 1.8789999 52
44.507999 7.5100002 3.4630001 15
44.147999 7.3509998 1.275 9
44.443001 7.5180001 2.7320001 13
42.932999 7.4099998 4.0900002 8
43.708 7.3429999 0.51200002 9
41.455002 7.0780001 1.878 21
42.798 7.4400001 3.3329999 57
42.891998 7.3569999 1.2410001 10
42.743 7.4460001 2.6300001 58
42.723999 7.5939999 4.0739999 9
42.458 7.3460002 0.49900001 6
41.921001 7.368 1.901 6
42.395 7.586 3.306 6
41.787998 7.3759999 1.211 9
41.173 7.382 2.536 6
40.623001 7.4289999 3.8789999 24
41.328999 7.3559999 0.48699999 7
40.835999 7.3839998 1.853 9
40.546001 7.461 3.165 80
40.596001 7.3709998 1.177 10
40.463001 7.46 2.4960001 58
40.634998 7.638 3.8840001 48
40.375 7.3889999 0.47600001 69
40.463001 7.5209999 1.84 71
40.546001 7.6659999 3.1689999 80
40.43 7.5440001 1.175 76
40.525002 7.6760001 2.503 59
40.597 7.8400002 3.8840001 50
40.377998 7.5929999 0.47799999 53
40.473999 7.7270002 1.842 54
40.549999 7.8759999 3.1730001 82
40.424999 7.7459998 1.176 77
40.539001 7.8850002 2.5050001 58
40.598 8.0489998 3.8900001 73
40.383999 7.7950001 0.479 54
40.483002 7.934 1.844 51
40.548 8.0819998 3.177 78
40.442001 7.9510002 1.178 74
40.506001 8.085 2.507 65
40.596001 8.2559996 3.8940001 49
40.380001 7.9980001 0.47799999 55
40.462002 8.1350002 1.846 55
40.576 8.2930002 3.1819999 49
40.441002 8.158 1.1799999 57
40.529999 8.2950001 2.5120001 57
40.604 8.4680004 3.898 76
40.368999 8.1990004 0.47999999 54
40.469002 8.3400002 1.849 72
40.584 8.5039997 3.1860001 51
40.466 8.3660002 1.182 50
40.535 8.5030003 2.5139999 57
40.598999 8.6759996 3.9030001 75
40.366001 8.3999996 0.48100001 54
40.470001 8.5469999 1.85 54
40.578999 8.7110004 3.1900001 51
40.442001 8.5640001 1.183 52
40.536999 8.7110004 2.5179999 50
40.605999 8.8859997 3.9089999 79
40.379002 8.6070004 0.48100001 56
40.463001 8.7510004 1.853 70
40.560001 8.9139996 3.1919999 82
40.446999 8.7720003 1.1849999 56
40.549 8.9189997 2.5220001 55
40.605999 9.0970001 3.9119999 53
40.390999 8.8140001 0.48300001 48
40.469002 8.9569998 1.855 54
40.563999 9.1239996 3.1949999 81
40.452999 8.9770002 1.186 58
40.542999 9.1230001 2.5239999 58
40.643002 9.3149996 3.9219999 50
40.388 9.0159998 0.484 51
40.477001 9.1660004 1.857 55
40.563 9.3319998 3.2 80
40.462002 9.1829996 1.188 57
40.539001 9.3330002 2.527 57
40.640999 9.5240002 3.9260001 47
40.393002 9.2220001 0.48300001 50
40.494999 9.3760004 1.8609999 51
40.569 9.5410004 3.204 74
40.458 9.3879995 1.188 58
40.546001 9.54 2.53 56
40.648998 9.7349997 3.931 46
40.397999 9.4280005 0.484 19
40.490002 9.5799999 1.862 46
40.546001 9.7449999 3.2049999 55
40.457001 9.5939999 1.1900001 53
40.532001 9.743 2.5320001 58
40.643002 9.9469995 3.9360001 46
40.396 9.6309996 0.48500001 24
40.488998 9.7880001 1.863 51
40.568001 9.96 3.211 57
40.485001 9.8050003 1.192 51
40.539001 9.9560003 2.5350001 60
40.638 10.155 3.9400001 51
40.383999 9.8310003 0.48500001 55
40.484001 9.9940004 1.8660001 54
40.597 10.175 3.217 51
40.473 10.009 1.191 53
40.544998 10.164 2.5380001 61
40.610001 10.358 3.941 51
40.382999 10.039 0.48500001 55
40.486 10.2 1.868 56
40.601002 10.387 3.22 50
40.472 10.216 1.193 54
40.557999 10.375 2.5409999 56
40.615002 10.573 3.9460001 70
40.411999 10.25 0.48500001 52
40.476002 10.403 1.869 57
40.603001 10.598 3.2249999 52
40.483002 10.424 1.194 55
40.551998 10.583 2.5420001 52
40.620998 10.784 3.951 76
40.405998 10.452 0.484 21
40.491001 10.617 1.8710001 57
40.605 10.807 3.2279999 51
40.469002 10.628 1.193 56
40.539001 10.788 2.5450001 54
40.452 10.949 3.9389999 89
40.380001 10.654 0.484 19
40.497002 10.825 1.872 45
40.411999 10.966 3.2149999 99
40.48 10.838 1.1950001 55
40.368 10.95 2.536 87
40.084 11.061 3.9070001 14
40.382 10.859 0.48300001 42
40.370998 10.998 1.868 36
39.952 11.049 3.1819999 17
40.349998 11.008 1.192 24
39.879002 11.024 2.506 14
39.339001 11.06 3.839 13
40.139 10.997 0.479 17
39.688 11.019 1.837 14
39.181999 11.039 3.1240001 14
39.585999 11.004 1.168 12
39.161999 11.029 2.464 14
38.66 11.07 3.776 14
39.389999 10.996 0.46900001 13
38.991001 11.024 1.806 13
38.519001 11.051 3.073 14
38.904999 11.014 1.149 13
38.469002 11.031 2.4230001 15
37.937 11.062 3.7079999 12
38.705002 11.001 0.46000001 13
38.325001 11.033 1.776 13
37.839001 11.055 3.0220001 17
38.210999 11.013 1.128 13
37.778 11.029 2.3800001 15
37.328999 11.081 3.6530001 15
38.028999 11.003 0.45100001 15
37.654999 11.036 1.745 16
37.179001 11.055 2.971 16
37.617001 11.034 1.11 14
37.153999 11.04 2.3429999 14
36.685001 11.081 3.5929999 15
37.362999 11.004 0.44100001 15
37.007 11.036 1.716 18
36.563 11.061 2.924 15
36.950001 11.031 1.089 13
36.519001 11.04 2.3039999 16
36.063999 11.083 3.5339999 16
36.778 11.019 0.433 15
36.365002 11.031 1.686 19
35.938999 11.063 2.8759999 16
36.358002 11.04 1.071 15
35.931999 11.048 2.2679999 17
35.448002 11.081 3.4779999 16
36.159 11.019 0.42300001 14
35.785999 11.044 1.659 22
35.356998 11.067 2.8310001 16
35.752998 11.04 1.052 17
35.354 11.056 2.2320001 17
34.900002 11.092 3.4260001 17
35.541 11.014 0.41299999 17
35.200001 11.044 1.631 19
34.787998 11.07 2.7869999 16
35.185001 11.048 1.034 15
34.792999 11.061 2.197 16
34.417 11.118 3.381 71
34.995998 11.025 0.405 18
34.660999 11.053 1.6059999 17
34.380001 11.122 2.7550001 75
34.638 11.054 1.017 16
34.338001 11.094 2.168 65
34.280998 11.257 3.3699999 58
34.445 11.028 0.396 15
34.199001 11.086 1.584 45
34.223999 11.249 2.744 69
34.226002 11.099 1.003 68
34.216999 11.236 2.1600001 47
34.168999 11.4 3.3610001 71
34.167 11.114 0.391 45
34.140999 11.243 1.58 58
34.111 11.39 2.7349999 68
34.098 11.236 0.99699998 70
34.066002 11.363 2.151 61
34.035999 11.534 3.349 69
34.047001 11.253 0.38600001 49
34.035 11.384 1.574 41
33.972 11.525 2.7249999 75
34.005001 11.381 0.99199998 46
33.944 11.498 2.142 66
33.888 11.665 3.336 62
33.912998 11.383 0.38100001 48
33.894001 11.514 1.564 68
33.851002 11.66 2.7149999 75
33.855 11.505 0.98500001 74
33.800999 11.629 2.1329999 57
33.766998 11.801 3.325 67
33.792999 11.516 0.37599999 43
33.765999 11.647 1.558 68
33.729 11.794 2.7060001 72
33.730999 11.64 0.97899997 73
33.705002 11.771 2.1259999 64
33.637001 11.932 3.3139999 69
33.659 11.647 0.37099999 48
33.645 11.779 1.55 42
33.603001 11.929 2.6949999 79
33.640999 11.783 0.97299999 46
33.569 11.898 2.1159999 66
33.529999 12.074 3.3039999 59
33.543999 11.78 0.366 47
33.515999 11.908 1.5420001 69
33.487 12.063 2.6849999 72
33.483002 11.9 0.96499997 67
33.456001 12.035 2.1070001 47
33.400002 12.203 3.2920001 74
16.122999 5.7449999 0.17299999 3
33.391998 12.04 1.534 68
33.354 12.19 2.674 74
33.369999 12.036 0.958 68
33.311001 12.157 2.096 69
33.386002 12.373 3.29 74
16.069 5.8099999 0.171 9
33.275002 12.171 1.525 67
33.318001 12.361 2.6700001 72
33.241001 12.169 0.94999999 64
33.305 12.345 2.0929999 67
15.96 5.8660002 0.167 18
22.105 8.2229996 1.011 6
33.224998 12.379 0.94400001 70
15.913 5.9559999 0.163 18
21.961 8.3199997 1.001 57
33.285999 12.627 0.94199997 3
15.846 6.0370002 0.15800001 10
21.934 8.4580002 0.99599999 34
33.265999 12.846 0.93300003 1
20.506001 8.1440001 2.0179999 89
15.845 6.1440001 0.155 10
20.673 8.1110001 0.935 10
20.476999 8.1459999 1.6339999 90
20.482 8.0469999 0.56999999 6
20.429001 8.1239996 1.273 88
15.919 6.2810001 0.15099999 8
20.399 8.1440001 0.91900003 81
20.544001 8.3149996 1.637 37
20.367001 8.1400003 0.56199998 70
20.5 8.2919998 1.274 2
20.332001 8.1590004 0.18700001 65
20.419001 8.29 0.91500002 40
20.576 8.3640003 0.56199998 0
33.355 13.937 3.273 72
20.344 8.3970003 0.90700001 57
33.313 13.938 2.6440001 77
33.292 13.757 0.89999998 3
33.279999 13.916 2.0550001 67
33.456001 14.208 3.279 19
33.223999 13.783 0.28299999 4
33.229 13.944 1.472 74
33.473999 14.237 2.6500001 20
33.203999 13.946 0.88800001 70
33.407001 14.195 2.0550001 21
33.900002 14.629 3.3169999 19
33.169998 13.983 0.271 51
33.419998 14.25 1.471 19
33.898998 14.648 2.6760001 20
33.401001 14.256 0.88099998 17
33.842999 14.613 2.073 21
34.341 15.057 3.3529999 18
33.438999 14.323 0.26199999 16
33.876999 14.673 1.4809999 20
34.337002 15.071 2.7030001 18
33.844002 14.673 0.88 17
34.262001 15.026 2.089 22
36.535 16.268999 3.5599999 6
33.914001 14.757 0.25 18
34.299 15.091 1.487 16
36.472 16.259001 2.862 3
34.236 15.075 0.87900001 13
36.359001 16.191999 2.2060001 63
38.387001 17.356001 3.7309999 8
36.224998 16.006001 0.25099999 54
36.282001 16.208 1.5599999 22
36.417 16.482 2.8469999 1
36.282001 16.222 0.91500002 53
36.345001 16.434999 2.1930001 56
36.527 16.767 3.5409999 7
36.215 16.246 0.237 56
36.300999 16.461 1.5470001 25
36.505001 16.768999 2.842 9
36.27 16.459999 0.89899999 56
36.349998 16.681999 2.1800001 57
36.445 16.978001 3.523 56
36.216 16.490999 0.21699999 52
36.287998 16.702 1.5319999 25
36.407001 16.974001 2.822 58
36.276001 16.708 0.884 63
36.376999 16.940001 2.1670001 62
36.449001 17.226999 3.5120001 55
36.219002 16.735001 0.198 50
36.306 16.954 1.516 43
36.404999 17.219 2.8080001 62
36.268002 16.948999 0.86500001 63
36.360001 17.18 2.1500001 65
36.464001 17.482 3.5020001 52
36.210999 16.975 0.18000001 48
36.307999 17.200001 1.501 30
36.422001 17.472 2.7950001 55
36.283001 17.198999 0.84600002 61
36.372002 17.429001 2.135 65
36.445999 17.722 3.4860001 50
36.221001 17.224001 0.15700001 57
36.306 17.444 1.48 35
36.417999 17.716 2.7809999 55
36.292999 17.447001 0.82800001 55
36.360001 17.667999 2.119 58
36.469002 17.978001 3.473 55
36.200001 17.455 0.13600001 55
36.301998 17.684 1.461 37
36.409 17.957001 2.7609999 60
36.298 17.693001 0.80500001 59
36.359001 17.912001 2.098 57
36.453999 18.216999 3.457 54
36.223 17.708 0.114 58
36.308998 17.93 1.443 41
36.416 18.202999 2.744 60
36.293999 17.931999 0.78299999 64
36.365002 18.156 2.079 66
36.452 18.461 3.438 54
36.210999 17.944 0.088 55
36.303001 18.17 1.419 46
36.410999 18.445 2.727 56
36.276001 18.165001 0.76099998 57
36.380001 18.406 2.0610001 62
36.459999 18.708 3.4200001 54
36.209 18.183001 0.063000001 53
36.317001 18.416 1.397 47
36.414001 18.688999 2.704 54
36.283001 18.409 0.73400003 63
36.373001 18.643999 2.036 61
36.441002 18.941 3.401 50
36.219002 18.427 0.037999999 49
36.306999 18.650999 1.374 51
36.409 18.926001 2.6819999 54
36.290001 18.650999 0.70899999 60
36.355 18.872999 2.0120001 56
36.451 19.188 3.3789999 53
36.223 18.669001 0.0080000004 52
36.317001 18.896 1.347 48
36.408001 19.166 2.661 53
36.284 18.886999 0.68300003 57
36.346001 19.107 1.988 59
36.452999 19.427999 3.3570001 54
36.220001 18.903999 -0.02 52
36.303001 19.125 1.3200001 43
36.422001 19.412001 2.6359999 54
36.283001 19.124001 0.653 56
36.344002 19.344 1.96 51
36.463001 19.672001 3.3369999 54
36.216999 19.139 -0.048999999 55
36.314999 19.368 1.294 59
36.407001 19.639 2.6099999 57
36.273998 19.353001 0.62300003 60
36.376999 19.597 1.9349999 57
36.466999 19.912001 3.3099999 52
36.215 19.374001 -0.082999997 55
36.299 19.594999 1.262 54
36.424 19.884001 2.586 56
36.293999 19.599001 0.59399998 59
36.367001 19.826 1.908 63
36.459999 20.141001 3.283 50
36.214001 19.606001 -0.116 58
36.319 19.837999 1.233 55
36.410999 20.112 2.5539999 53
36.276001 19.823999 0.55900002 59
36.352001 20.048 1.877 61
36.456001 20.372999 3.257 53
36.226002 19.844999 -0.148 54
36.324001 20.072001 1.2029999 57
36.415001 20.344 2.5250001 52
36.282001 20.056999 0.52499998 62
36.342999 20.275 1.8430001 58
36.458 20.606001 3.2260001 46
36.217999 20.072001 -0.18700001 44
36.308998 20.292999 1.169 58
36.416 20.575001 2.4960001 47
36.265999 20.277 0.49200001 57
36.354 20.51 1.813 58
36.445999 20.827 3.194 45
36.223999 20.304001 -0.22400001 43
36.311001 20.521999 1.131 56
36.418999 20.804001 2.461 46
36.292 20.521 0.45300001 59
36.349998 20.733 1.778 59
36.450001 21.056 3.165 45
36.223 20.531 -0.25999999 46
36.307999 20.747 1.097 57
36.403999 21.02 2.4260001 45
36.269001 20.732 0.41499999 57
36.345001 20.955 1.739 56
36.470001 21.292 3.1300001 50
36.202999 20.746 -0.303 37
36.316002 20.973 1.0599999 58
36.398998 21.24 2.392 46
36.286999 20.966 0.377 60
36.368999 21.191999 1.705 63
36.438999 21.495001 3.092 44
36.23 20.983 -0.345 45
36.306999 21.191 1.018 54
36.391998 21.457001 2.352 44
36.252998 21.169001 0.33399999 57
36.362999 21.407 1.666 55
36.460999 21.726 3.059 45
36.235001 21.208 -0.38600001 42
36.319 21.416 0.97899997 52
36.411999 21.684999 2.3139999 40
36.264 21.392 0.292 53
36.355999 21.618999 1.623 50
36.466999 21.945999 3.0190001 45
36.236 21.427999 -0.433 40
36.301998 21.621 0.93699998 57
36.396 21.889999 2.2750001 47
36.264999 21.610001 0.25 55
36.356998 21.834 1.5829999 45
36.451 22.148001 2.9779999 39
36.221001 21.634001 -0.479 42
36.314999 21.843 0.89099997 54
36.400002 22.104 2.2309999 47
36.275002 21.83 0.20200001 53
36.352001 22.041 1.54 49
36.450001 22.357 2.938 42
36.222 21.848 -0.52399999 43
36.312 22.052 0.847 55
36.402 22.313 2.188 47
36.286999 22.046 0.155 56
36.341999 22.243 1.492 33
36.438999 22.556999 2.891 47
36.216 22.056 -0.57599998 46
36.308998 22.256001 0.801 56
36.403999 22.518 2.145 53
36.271 22.243999 0.108 60
36.367001 22.462999 1.449 26
36.439999 22.757999 2.846 48
36.212002 22.26 -0.62699997 45
36.300999 22.455 0.74900001 56
36.388 22.709999 2.095 47
36.257 22.440001 0.056000002 51
36.344002 22.648001 1.399 28
36.431999 22.951 2.802 45
36.199001 22.455999 -0.676 46
36.292999 22.650999 0.70099998 48
36.417 22.924 2.0480001 46
36.264999 22.645 0.0040000002 51
36.330002 22.837 1.347 30
36.432999 23.146 2.7509999 37
36.202 22.657 -0.73000002 43
36.307999 22.856001 0.65100002 58
36.383999 23.097 1.999 44
36.262001 22.841 -0.046 52
36.348999 23.042 1.298 36
36.437 23.337999 2.701 41
36.196999 22.851999 -0.787 40
36.294998 23.041 0.59500003 53
36.405998 23.299999 1.946 44
36.268002 23.035999 -0.1 52
36.348 23.229 1.245 34
36.443001 23.527 2.652 39
36.205002 23.051001 -0.84200001 41
36.284 23.222 0.542 33
36.398998 23.479 1.892 35
36.252998 23.216999 -0.15899999 34
36.334999 23.406 1.188 45
36.426998 23.698 2.596 33
36.203999 23.238001 -0.89999998 38
36.115002 23.296 0.48300001 25
36.404999 23.663 1.84 41
35.973999 23.221001 -0.213 16
36.34 23.589001 1.1339999 51
36.424 23.871 2.5409999 36
36.202 23.423 -0.96200001 37
35.838001 23.296 0.421 53
36.389 23.829 1.78 41
35.898998 23.351 -0.271 25
36.324001 23.753 1.077 46
36.439999 24.052 2.4879999 34
36.202999 23.604 -1.021 38
35.785999 23.434999 0.36399999 40
36.393002 24.000999 1.725 39
36.097 23.656 -0.33500001 25
36.341999 23.936001 1.015 49
36.431999 24.212999 2.427 36
36.200001 23.778 -1.0829999 38
35.800999 23.611 0.30399999 31
36.390999 24.164 1.666 43
36.228001 23.912001 -0.396 28
36.326 24.09 0.95700002 43
36.411999 24.360001 2.368 36
36.189999 23.944 -1.149 37
35.771 23.754999 0.23999999 25
36.389999 24.323 1.603 43
36.250999 24.093 -0.46000001 37
36.326 24.249001 0.89499998 48
36.435001 24.528 2.3099999 38
36.187 24.107 -1.212 37
35.772999 23.914 0.18000001 28
36.359001 24.457001 1.541 24
36.237 24.243999 -0.52700001 36
36.32 24.399 0.829 35
36.421001 24.667 2.244 40
36.188999 24.27 -1.278 36
35.804001 24.084999 0.117 33
36.372002 24.612 1.479 34
36.23 24.395 -0.59100002 54
36.326 24.552999 0.76700002 53
36.417999 24.808001 2.1819999 37
36.188 24.424999 -1.349 35
36.265999 24.545 0.048999999 36
36.355999 24.743999 1.41 27
36.243 24.552999 -0.65799999 54
36.338001 24.702 0.70200002 52
36.448002 24.964001 2.118 39
36.181999 24.572001 -1.416 39
36.275002 24.695 -0.015 51
36.370998 24.889999 1.347 24
36.224998 24.684999 -0.72899997 50
36.318001 24.825001 0.63099998 53
36.742001 25.295 2.069 34
36.185001 24.718 -1.4859999 41
36.273998 24.83 -0.082999997 51
36.657001 25.215 1.289 36
36.237 24.832001 -0.79699999 48
36.293999 24.940001 0.56400001 20
36.744999 25.423 2 36
36.169998 24.847 -1.559 36
36.252998 24.945999 -0.155 19
36.667999 25.346001 1.22 39
36.195 24.934 -0.86699998 16
45.102001 31.145 0.61500001 17
36.724998 25.525 1.929 39
36.208 25.004999 -1.631 8
43.833 30.312 -0.271 17
36.674 25.468 1.15 37
43.759998 30.298 -1.138 15
45.016998 31.232 0.52200001 7
36.723999 25.634001 1.858 38
61.896 42.960999 -2.914 18
43.797001 30.427999 -0.35800001 15
36.651001 25.562 1.077 27
44.018002 30.621 -1.2309999 23
44.012001 30.669001 0.42699999 14
36.716 25.732 1.785 43
61.594002 42.956001 -3.0320001 25
43.808998 30.57 -0.449 16
36.666 25.674 1.005 11
44.150002 30.848 -1.325 11
43.966 30.761 0.338 23
36.715 25.827 1.712 40
61.327 42.960999 -3.142 32
44.193001 30.965 -0.54100001 15
36.650002 25.76 0.93000001 6
43.992001 30.865999 -1.415 11
43.797001 30.759001 0.244 23
36.705002 25.907 1.638 47
61.154999 43.019001 -3.263 9
44.183998 31.075001 -0.63099998 30
40.452999 28.530001 0.94400001 74
44.019001 31.004999 -1.506 13
44.224998 31.167999 0.15800001 25
36.693001 25.98 1.561 46
32.485001 22.940001 -1.8049999 3
44.140999 31.153 -0.727 13
40.569 28.701 0.86299998 66
44.143002 31.202 -1.602 3
43.662998 30.868999 0.066 23
36.695999 26.054001 1.485 48
32.459999 23.004999 -1.8710001 5
44.015999 31.165001 -0.815 11
40.576 28.787001 0.778 41
44.021999 31.218 -1.696 12
43.547001 30.875999 -0.028000001 21
36.694 26.117001 1.409 52
44.044998 31.275 -0.90899998 15
40.562 28.849001 0.69199997 17
45.101002 32.078999 -1.832 10
43.344002 30.811001 -0.118 21
36.691002 26.173 1.33 48
32.495998 23.174999 -2.017 7
43.953999 31.291 -1.0039999 17
44.595001 31.787001 0.66600001 5
45.089001 32.153999 -1.929 6
43.439999 30.948999 -0.211 20
36.695 26.224001 1.252 42
32.424 23.186001 -2.082 9
43.988998 31.386999 -1.097 16
44.514 31.789 0.56900001 8
44.98 32.152 -2.0250001 11
43.618999 31.136999 -0.30899999 21
36.678001 26.252001 1.173 38
32.387001 23.215 -2.151 8
44.407001 31.747 -1.204 22
44.387001 31.747999 0.472 15
44.866001 32.136002 -2.1159999 14
44.053001 31.497999 -0.40400001 15
36.687 26.291 1.094 26
32.330002 23.222 -2.2219999 8
44.581001 31.924 -1.306 12
44.411999 31.806 0.37599999 16
44.951 32.251999 -2.2190001 10
44.391998 31.783001 -0.50400001 16
36.688 26.316 1.0140001 9
31.829 22.902 -2.256 2
44.341999 31.796 -1.397 25
44.452 31.865 0.27900001 18
44.942001 32.291 -2.3210001 8
44.418999 31.834 -0.60100001 6
40.224998 28.871 1.025 41
31.898001 22.983999 -2.332 5
43.569 31.274 -1.4680001 7
44.5 31.919001 0.183 16
59.754002 42.981998 -3.2149999 18
44.478001 31.899 -0.69999999 6
40.548 29.111 0.94300002 50
31.834999 22.965 -2.401 7
43.473999 31.226999 -1.5599999 5
44.473 31.91 0.086000003 17
59.638 42.93 -3.339 21
44.189999 31.704 -0.79100001 14
40.591 29.142 0.85500002 43
31.820999 22.974001 -2.4690001 7
45.085999 32.398998 -1.7180001 10
44.421001 31.872 -0.012 15
59.610001 42.931 -3.4749999 15
44.673 32.051998 -0.89700001 25
40.557999 29.107 0.76700002 20
31.764999 22.944 -2.5350001 6
45.123001 32.428001 -1.818 8
44.486 31.909 -0.109 12
44.691002 32.057999 -0.99699998 14
44.327 31.792 0.74000001 5
31.718 22.915001 -2.6040001 5
45.088001 32.395 -1.914 4
44.423 31.844 -0.205 10
49.259998 35.476002 -3.085 23
44.581001 31.959999 -1.091 14
44.443001 31.844 0.64499998 8
31.761 22.943001 -2.6760001 4
44.923 32.257999 -2.007 9
44.532001 31.891001 -0.303 1
49.299999 35.487999 -3.1989999 19
44.547001 31.908001 -1.187 16
44.414001 31.782 0.54799998 6
31.729 22.909 -2.743 5
44.951 32.25 -2.1059999 7
43.856998 31.368 -0.39399999 12
32.004002 23.018999 -2.145 4
44.515999 31.847 -1.283 17
44.443001 31.750999 0.45100001 12
35.799999 25.827999 -3.177 7
44.870998 32.154999 -2.1989999 9
44.206001 31.569 -0.49200001 14
48.792 35.054001 -3.375 24
44.129002 31.523001 -1.3660001 27
44.499001 31.731001 0.35600001 14
14.508 10.455 -1.318 2
45.084999 32.258999 -2.306 11
44.134998 31.458 -0.58700001 15
48.859001 35.051998 -3.4860001 25
43.984001 31.363001 -1.456 15
44.375999 31.573 0.25999999 12
10.494 7.552 -0.97500002 2
45.089001 32.203999 -2.402 7
44.006001 31.297001 -0.67799997 7
36.339001 26.025 -2.6700001 10
44.488998 31.653999 -1.568 20
44.261002 31.410999 0.164 11
9.3570004 6.7220001 -0.889 2
60.34 43.006001 -3.342 16
43.769001 31.051001 -0.76700002 9
36.326 25.962 -2.7449999 9
44.594002 31.652 -1.664 26
43.405998 30.718 0.068999998 12
10.44 7.4850001 -1.015 14
60.490002 43.007 -3.4790001 18
43.938999 31.083 -0.86299998 10
36.129002 25.759001 -2.803 8
44.514 31.509001 -1.7539999 25
43.374001 30.599001 -0.02 17
9.9779997 7.1360002 -0.991 42
32.462002 23.017 -1.934 17
44.567001 31.43 -0.96700001 17
35.956001 25.566999 -2.8670001 18
45.127998 31.844999 -1.872 10
43.547001 30.614 -0.111 18
9.8570004 7.0310001 -0.99800003 39
32.555 23.011999 -2.0050001 9
44.700001 31.416 -1.061 18
35.859001 25.422001 -2.9319999 15
45.243 31.819 -1.9680001 12
43.657001 30.577999 -0.20100001 16
9.4049997 6.6880002 -0.972 25
34.355999 24.202999 -2.1860001 3
44.493 31.153 -1.147 16
32.777 23.16 -2.743 6
45.250999 31.709 -2.059 13
43.737 30.511 -0.289 12
9.349 6.6269999 -0.98500001 18
34.344002 24.106001 -2.253 10
43.985001 30.674 -1.221 36
15.986 11.255 -1.3710001 1
61.508999 42.929001 -2.921 21
43.766998 30.398001 -0.377 10
9.3269997 6.5869999 -1.001 17
34.583 24.177999 -2.336 3
43.743999 30.375999 -1.3 15
15.747 11.043 -1.381 4
61.762001 42.923 -3.052 29
45.081001 31.167 -0.477 13
9.3509998 6.5780001 -1.022 17
43.435001 30.021 -1.376 14
11.582 8.0880003 -1.0369999 1
62.063 42.936001 -3.1849999 28
36.23 24.926001 -0.45300001 28
9.3739996 6.5669999 -1.0420001 17
34.703999 24.049 -2.477 5
36.188 24.889999 -1.214 38
11.091 7.71 -1.0140001 1
36.159 24.893 -1.924 36
36.25 24.809 -0.523 46
9.3889999 6.5479999 -1.061 12
34.738998 23.957001 -2.543 20
36.189999 24.763 -1.2819999 46
10.716 7.414 -1 5
36.143002 24.754999 -1.989 55
36.262001 24.681999 -0.59100002 47
8.6630001 6.013 -0.995 8
34.901001 23.944 -2.619 17
36.182999 24.622 -1.348 46
10.482 7.2150002 -0.99599999 11
36.147999 24.625 -2.0550001 28
36.238998 24.525 -0.65600002 44
8.1870003 5.6529999 -0.95499998 7
36.037998 24.591 -2.7679999 13
36.185001 24.483 -1.413 47
9.9090004 6.7839999 -0.95999998 18
36.112999 24.459999 -2.1170001 19
36.233002 24.374001 -0.71899998 47
7.882 5.4130001 -0.93199998 6
35.500999 24.086 -2.7880001 9
36.198002 24.344 -1.476 56
10.257 6.9819999 -1.011 34
36.118 24.318001 -2.1800001 50
36.23 24.216999 -0.78500003 45
7.7950001 5.323 -0.93599999 5
36.014 24.287001 -2.8900001 10
36.181999 24.181 -1.536 46
9.9540005 6.7350001 -0.99699998 26
36.117001 24.165001 -2.24 53
36.216999 24.051001 -0.847 46
7.4260001 5.04 -0.903 8
36.000999 24.125999 -2.948 7
36.167 24.011 -1.598 52
9.8990002 6.6560001 -1.008 23
36.122002 24.009001 -2.3 62
36.209 23.881001 -0.90499997 49
7.2059999 4.8610001 -0.88800001 12
16.393999 10.915 -1.369 0
36.172001 23.851999 -1.658 52
9.8769999 6.598 -1.021 20
36.099998 23.832001 -2.3559999 62
36.220001 23.718 -0.96700001 52
7.1269999 4.776 -0.889 14
16.237 10.736 -1.381 4
36.169998 23.681 -1.7130001 57
9.9139996 6.5780001 -1.04 20
36.120998 23.679001 -2.414 62
36.201 23.533001 -1.024 51
7.1550002 4.7620001 -0.90399998 17
15.808 10.378 -1.368 21
36.157001 23.497999 -1.771 43
9.9659996 6.5650001 -1.061 22
36.118999 23.502001 -2.4690001 60
36.210999 23.360001 -1.079 52
7.1890001 4.75 -0.91799998 16
15.524 10.117 -1.367 21
36.146 23.313 -1.825 56
10.016 6.5500002 -1.081 20
36.078999 23.299 -2.5190001 62
36.191002 23.164 -1.136 43
7.2379999 4.7470002 -0.935 17
15.461 9.9989996 -1.3839999 31
36.136002 23.122999 -1.875 46
10.071 6.5359998 -1.1 14
36.095001 23.127001 -2.5710001 49
36.203999 22.985001 -1.189 58
7.277 4.737 -0.94999999 15
10.566 6.7789998 -0.95999998 2
36.160999 22.950001 -1.9299999 53
9.4329996 6.073 -1.044 9
36.092999 22.936001 -2.622 55
36.188999 22.783001 -1.238 53
7.3460002 4.744 -0.96799999 15
10.608 6.7509999 -0.97799999 13
36.141998 22.747 -1.978 49
8.8649998 5.6620002 -0.99199998 7
36.075001 22.735001 -2.6689999 27
36.199001 22.593 -1.291 55
7.3850002 4.73 -0.98299998 14
10.648 6.7199998 -0.995 12
36.137001 22.548 -2.0239999 57
8.566 5.4250002 -0.96899998 6
34.470001 21.538 -2.595 3
36.178001 22.381001 -1.339 53
7.4380002 4.724 -0.99900001 18
10.747 6.723 -1.018 17
36.110001 22.330999 -2.072 57
8.2720003 5.1929998 -0.94599998 6
34.549 21.393999 -2.6440001 10
36.181 22.179001 -1.383 52
7.5 4.7220001 -1.015 20
10.798 6.6960001 -1.036 19
36.094002 22.118999 -2.1159999 32
8.1219997 5.0539999 -0.93900001 10
34.796001 21.351999 -2.704 11
36.176998 21.969999 -1.431 55
7.5710001 4.724 -1.034 20
10.873 6.6810002 -1.0549999 24
35.425999 21.507 -2.118 5
7.928 4.888 -0.92400002 14
35.089001 21.332001 -2.7679999 6
36.166 21.754999 -1.474 58
7.631 4.7179999 -1.05 21
10.918 6.645 -1.072 25
36.088001 21.698 -2.201 41
7.8740001 4.809 -0.92699999 16
35.98 21.664 -2.8759999 17
36.165001 21.541 -1.515 60
7.6950002 4.7129998 -1.066 19
10.968 6.612 -1.089 23
36.105 21.497 -2.2420001 53
7.8920002 4.7740002 -0.93699998 17
16.514999 9.8459997 -1.3380001 1
36.172001 21.329 -1.558 62
7.7670002 4.71 -1.084 18
11.01 6.5710001 -1.103 22
36.105999 21.281 -2.279 55
7.934 4.7519999 -0.949 19
16.700001 9.8559999 -1.37 2
36.155998 21.103001 -1.596 62
7.835 4.7049999 -1.101 18
11.101 6.559 -1.124 21
36.092999 21.054001 -2.3180001 55
8.0050001 4.7459998 -0.96600002 20
16.861 9.849 -1.4 11
36.161999 20.885 -1.632 64
7.8979998 4.6939998 -1.1160001 17
11.208 6.5539999 -1.145 22
36.083 20.827999 -2.352 54
8.0780001 4.7399998 -0.98199999 20
17.177999 9.9289999 -1.443 14
36.157001 20.658001 -1.671 59
7.9349999 4.6669998 -1.1289999 17
11.311 6.5440001 -1.165 20
36.082001 20.604 -2.385 56
8.1599998 4.737 -0.99800003 21
17.326 9.9060001 -1.47 20
36.157001 20.434 -1.706 61
7.882 4.5869999 -1.127 13
11.378 6.5120001 -1.183 16
36.084999 20.379 -2.4200001 55
8.2419996 4.7329998 -1.015 21
15.683 8.8690004 -1.344 3
36.148998 20.202 -1.7359999 62
7.8270001 4.5050001 -1.125 12
11.494 6.506 -1.2029999 16
36.075001 20.146999 -2.45 44
8.3190002 4.724 -1.031 22
15.795 8.8319998 -1.368 16
36.136002 19.964001 -1.77 60
7.79 4.4330001 -1.125 11
11.498 6.4349999 -1.212 11
31.797001 17.555 -2.184 47
8.4250002 4.7309999 -1.05 21
15.682 8.6680002 -1.369 16
36.138 19.735001 -1.8 56
7.7519999 4.362 -1.125 10
10.563 5.8429999 -1.122 9
32.52 17.745001 -2.2609999 4
8.5200005 4.7280002 -1.068 22
12.722 6.9510002 -1.12 0
36.136002 19.500999 -1.827 55
7.6339998 4.2459998 -1.112 8
10.256 5.6069999 -1.096 8
32.459999 17.503 -2.2809999 3
8.6099997 4.723 -1.085 23
12.406 6.697 -1.101 14
36.117001 19.254999 -1.8559999 58
7.382 4.0570002 -1.08 7
10.037 5.4219999 -1.079 7
36.07 19.214001 -2.5580001 62
8.7069998 4.7179999 -1.101 21
12.657 6.75 -1.131 10
36.132999 19.028999 -1.883 60
7.2379999 3.9300001 -1.063 7
9.7600002 5.2080002 -1.056 7
36.068001 18.976 -2.585 65
8.8030005 4.7119999 -1.119 21
12.739 6.711 -1.147 13
36.112999 18.781 -1.905 62
7.0869999 3.8010001 -1.044 8
9.5719995 5.0440001 -1.04 6
34.109001 17.722 -2.4649999 11
8.9060001 4.7080002 -1.137 20
13.009 6.7659998 -1.179 25
36.091999 18.532 -1.9299999 84
6.9920001 3.7030001 -1.033 8
9.5179996 4.9520001 -1.039 12
31.086 15.945 -2.2639999 161
9.0319996 4.7140002 -1.1569999 21
13.008 6.6789999 -1.186 24
36.120998 18.308001 -1.954 49
6.9060001 3.6110001 -1.024 8
9.4700003 4.8639998 -1.039 17
31.437 15.915 -2.309 18
9.1350002 4.7069998 -1.174 21
13.134 6.6560001 -1.204 26
36.088001 18.049999 -1.971 29
6.848 3.5339999 -1.017 7
9.4940004 4.8119998 -1.046 17
31.586 15.78 -2.3369999 168
9.2440004 4.6999998 -1.192 20
13.309 6.6560001 -1.227 29
34.176998 16.865 -1.887 5
6.7750001 3.45 -1.0089999 8
9.5649996 4.7839999 -1.057 17
32.213001 15.877 -2.398 26
9.3649998 4.698 -1.211 16
13.476 6.6479998 -1.248 29
36.096001 17.572001 -2.0120001 59
6.7129998 3.372 -1.002 8
9.6239996 4.7480001 -1.068 21
32.342999 15.722 -2.424 7
9.4650002 4.6830001 -1.227 17
13.596 6.6160002 -1.265 27
35.148998 16.874001 -1.975 53
6.6570001 3.2980001 -0.995 8
9.7399998 4.7389998 -1.084 21
32.525002 15.592 -2.4519999 95
9.493 4.632 -1.234 16
13.716 6.5799999 -1.2819999 26
33.967999 16.077 -1.926 3
6.6100001 3.2290001 -0.99000001 8
9.8529997 4.7270002 -1.1 25
33.907001 16.025 -2.5680001 6
9.4779997 4.559 -1.234 15
13.873 6.5609999 -1.301 26
34.098 15.909 -1.948 10
6.5599999 3.1589999 -0.98400003 8
9.9770002 4.7179999 -1.117 23
34.153999 15.909 -2.602 6
9.4510002 4.4819999 -1.233 13
14.051 6.5500002 -1.322 27
34.844002 16.02 -2.003 3
6.5209999 3.095 -0.97899997 8
10.114 4.7129998 -1.135 23
35.817001 16.441 -2.74 20
9.4420004 4.4120002 -1.235 10
14.236 6.539 -1.344 27
35.563999 16.108999 -2.0599999 41
6.4980001 3.039 -0.97600001 8
10.255 4.7090001 -1.153 22
35.311001 15.967 -2.711 4
9.316 4.2880001 -1.219 11
14.437 6.5320001 -1.3660001 27
36.088001 16.101999 -2.1029999 57
6.4699998 2.98 -0.97299999 8
10.429 4.7160001 -1.176 25
36.022999 16.044001 -2.776 43
9.1529999 4.1500001 -1.199 11
14.629 6.5190001 -1.388 32
34.845001 15.31 -2.039 43
6.4640002 2.9319999 -0.97299999 8
10.576 4.7090001 -1.194 25
34.816002 15.268 -2.694 4
9.1020002 4.0630002 -1.194 10
14.845 6.513 -1.413 30
32.799 14.189 -1.929 2
6.448 2.8800001 -0.97100002 9
10.731 4.7049999 -1.2130001 25
32.851002 14.181 -2.549 16
9.0349998 3.971 -1.186 9
15.024 6.4879999 -1.432 24
33.063 14.077 -1.955 1
6.4250002 2.825 -0.96799999 8
10.902 4.704 -1.234 25
33.168999 14.092 -2.5799999 6
8.9809999 3.8840001 -1.1799999 8
15.31 6.507 -1.462 15
33.806999 14.162 -2.006 0
6.4310002 2.7820001 -0.96899998 8
11.07 4.6999998 -1.2539999 26
34.798 14.545 -2.7160001 27
8.9099998 3.7909999 -1.1720001 9
14.121 5.9039998 -1.351 3
33.301998 13.724 -1.983 30
6.3979998 2.723 -0.96399999 8
11.249 4.698 -1.276 24
32.443001 13.337 -2.536 11
8.8570004 3.707 -1.165 8
14.201 5.8390002 -1.36 8
20.25 8.2060003 -1.211 36
6.401 2.6789999 -0.96499997 9
11.434 4.6960001 -1.298 26
20.193001 8.1630001 -1.581 44
8.7989998 3.6210001 -1.1569999 7
14.451 5.8429999 -1.385 11
20.246 8.066 -1.214 103
6.3800001 2.625 -0.96100003 9
11.616 4.6900001 -1.319 27
20.204 8.0279999 -1.586 56
8.7889996 3.556 -1.156 8
14.144 5.6209998 -1.358 10
33.542 13.135 -2.016 17
6.3730001 2.5780001 -0.95999998 9
11.816 4.6890001 -1.342 24
33.431999 13.055 -2.6259999 12
8.71 3.4619999 -1.145 8
14.419 5.6300001 -1.3839999 11
33.326 12.821 -2.0079999 3
6.3520002 2.5239999 -0.95700002 9
12.011 4.6830001 -1.365 24
17.476999 6.7049999 -1.374 0
8.6730003 3.3870001 -1.14 8
14.267 5.473 -1.3710001 10
34.84 13.167 -2.1040001 30
6.3390002 2.474 -0.954 8
12.231 4.6830001 -1.3890001 21
33.348 12.564 -2.6259999 7
8.6420002 3.3150001 -1.136 9
14.456 5.4460001 -1.39 11
16.103001 5.9759998 -0.97399998 108
6.3449998 2.4319999 -0.954 9
12.428 4.6729999 -1.411 23
16.253 6.0120001 -1.281 0
8.6149998 3.244 -1.132 8
13.737 5.0799999 -1.3200001 4
16.105 5.8660002 -0.97500002 66
6.3369999 2.3840001 -0.95200002 9
12.685 4.6820002 -1.4400001 22
16.07 5.835 -1.267 106
8.5710001 3.168 -1.125 8
14.462 5.2490001 -1.39 11
16.162001 5.7810001 -0.98100001 70
6.3390002 2.342 -0.95099998 8
12.897 4.6739998 -1.464 22
16.521 5.8930001 -1.303 61
8.5419998 3.102 -1.1210001 8
14.311 5.1069999 -1.375 10
34.844002 12.255 -2.115 95
6.3400002 2.303 -0.95099998 8
13.1 4.6669998 -1.4859999 22
34.769001 12.193 -2.744 47
8.5349998 3.0469999 -1.119 8
14.354 5.0339999 -1.3789999 11
34.863998 12.052 -2.118 95
6.3390002 2.263 -0.94999999 8
13.239 4.6360002 -1.501 24
34.763 11.982 -2.7420001 48
8.5170002 2.9879999 -1.1160001 9
14.493 4.9949999 -1.393 11
34.856998 11.839 -2.119 95
6.355 2.2290001 -0.95099998 8
13.469 4.6329999 -1.526 17
34.727001 11.759 -2.7390001 56
8.5220003 2.938 -1.1160001 9
14.479 4.9029999 -1.39 10
34.860001 11.629 -2.119 88
6.3439999 2.1860001 -0.949 8
13.658 4.6149998 -1.5470001 12
34.741001 11.553 -2.74 51
8.5229998 2.885 -1.115 9
14.611 4.8590002 -1.402 10
34.841999 11.415 -2.1199999 88
6.3569999 2.151 -0.94999999 8
13.324 4.4219999 -1.507 10
34.612999 11.301 -2.7279999 62
8.5369997 2.8369999 -1.115 9
14.855 4.849 -1.425 11
34.84 11.207 -2.119 94
6.3670001 2.1159999 -0.94999999 8
13.346 4.3470001 -1.508 9
34.724998 11.129 -2.7379999 50
8.5220003 2.78 -1.113 9
15.01 4.809 -1.438 11
34.841999 10.998 -2.119 99
6.3670001 2.076 -0.949 8
13.334 4.2620001 -1.506 9
34.631001 10.891 -2.727 19
8.5080004 2.724 -1.109 9
15.25 4.7930002 -1.46 11
35.453999 10.978 -2.1559999 26
6.381 2.0409999 -0.94999999 8
13.336 4.1810002 -1.5039999 9
27.448 8.4659996 -2.1600001 1
8.4860001 2.664 -1.105 9
15.497 4.777 -1.483 11
27.459999 8.3380003 -1.669 2
6.3839998 2.0020001 -0.949 8
13.322 4.0949998 -1.502 9
27.469999 8.3079996 -2.161 13
8.4779997 2.6099999 -1.103 9
15.725 4.7529998 -1.503 11
27.545 8.198 -1.673 0
6.3969998 1.967 -0.94999999 8
13.283 4.0029998 -1.4960001 9
27.525 8.1590004 -2.1630001 7
8.4890003 2.5610001 -1.103 9
15.956 4.7270002 -1.524 14
27.719 8.085 -1.684 1
6.4159999 1.934 -0.95099998 9
13.244 3.911 -1.489 9
27.743999 8.0570002 -2.1789999 11
8.4919996 2.51 -1.102 9
16.278 4.723 -1.553 14
27.937 7.9829998 -1.6950001 2
6.4219999 1.896 -0.95099998 8
13.23 3.8269999 -1.4859999 9
27.829 7.915 -2.184 55
8.5080004 2.4630001 -1.102 9
16.518 4.6929998 -1.574 15
27.591999 7.7199998 -1.673 8
6.4369998 1.86 -0.95200002 8
13.218 3.743 -1.483 8
27.827999 7.7490001 -2.181 67
8.4980001 2.4089999 -1.1 9
16.827 4.6789999 -1.601 17
27.794001 7.6110001 -1.683 2
6.4439998 1.823 -0.95099998 8
13.134 3.6389999 -1.471 8
27.823 7.5809999 -2.178 38
8.4779997 2.3510001 -1.096 9
17.153 4.6680002 -1.63 19
28.037001 7.5100002 -1.697 2
6.461 1.788 -0.95300001 8
13.088 3.5469999 -1.464 8
27.971001 7.454 -2.187 23
8.4879999 2.302 -1.095 9
17.525999 4.665 -1.664 20
40.226002 10.535 -2.4319999 107
6.4650002 1.749 -0.95200002 8
13.017 3.451 -1.455 8
28.068001 7.3119998 -2.1919999 11
8.4949999 2.2520001 -1.095 9
17.856001 4.645 -1.693 20
40.219002 10.299 -2.428 100
6.454 1.707 -0.949 8
13.006 3.369 -1.451 8
28.207001 7.1799998 -2.2 2
8.4989996 2.201 -1.094 9
18.200001 4.625 -1.723 16
40.216 10.059 -2.4260001 90
6.4920001 1.678 -0.95300001 8
12.939 3.273 -1.442 8
34.527 8.5860004 -2.6900001 1
8.5129995 2.154 -1.094 9
18.663 4.631 -1.765 13
40.223 9.8219995 -2.4230001 93
6.4879999 1.637 -0.95099998 9
12.916 3.1900001 -1.437 8
37.346001 9.0640001 -2.9059999 5
8.4890003 2.0969999 -1.089 9
19.211 4.652 -1.814 13
40.206001 9.5799999 -2.4189999 95
6.5 1.6 -0.95099998 9
12.886 3.105 -1.432 7
40.133999 9.5019999 -3.119 22
8.4989996 2.0469999 -1.089 9
22.683001 5.3590002 -2.1389999 4
40.223999 9.3459997 -2.4170001 97
6.5019999 1.561 -0.94999999 8
12.918 3.0339999 -1.433 7
40.084999 9.2519999 -3.1099999 26
8.5089998 1.998 -1.089 9
22.677999 5.223 -2.1359999 4
40.207001 9.1040001 -2.4130001 106
6.5139999 1.524 -0.94999999 8
12.892 2.9519999 -1.429 7
40.157001 9.0299997 -3.112 39
8.5229998 1.95 -1.089 9
22.563999 5.0619998 -2.122 4
40.217999 8.8730001 -2.411 105
6.507 1.484 -0.94800001 9
12.865 2.869 -1.424 7
40.164001 8.7930002 -3.108 48
8.5419998 1.904 -1.09 9
22.503 4.914 -2.1140001 4
40.202 8.6330004 -2.4059999 96
6.5380001 1.451 -0.95099998 9
12.889 2.7969999 -1.424 7
40.152 8.5570002 -3.1029999 52
8.5369997 1.851 -1.0880001 9
22.582001 4.796 -2.118 4
40.202999 8.3959999 -2.4030001 87
6.533 1.41 -0.949 9
12.897 2.721 -1.423 7
40.131001 8.3149996 -3.0969999 56
8.5509996 1.803 -1.0880001 9
22.473 4.6409998 -2.105 5
40.210999 8.1610003 -2.4000001 100
6.5419998 1.372 -0.949 8
12.897 2.6440001 -1.421 7
40.146 8.0810003 -3.0940001 44
8.5679998 1.755 -1.089 9
22.360001 4.4860001 -2.092 4
40.209 7.9239998 -2.3959999 102
6.5440001 1.3329999 -0.94800001 9
12.88 2.5650001 -1.4170001 7
40.161999 7.8470001 -3.0910001 48
8.5909996 1.7079999 -1.09 9
22.489 4.3779998 -2.1010001 5
40.212002 7.691 -2.392 105
6.5630002 1.298 -0.94999999 9
12.852 2.483 -1.413 7
40.164001 7.6100001 -3.0869999 90
8.5830002 1.654 -1.0880001 9
22.323999 4.2129998 -2.0829999 4
40.196999 7.454 -2.3889999 103
6.5799999 1.261 -0.95099998 9
12.858 2.4070001 -1.411 7
40.153 7.3730001 -3.0810001 97
8.6090002 1.609 -1.089 9
22.325001 4.0809999 -2.0799999 4
40.647999 7.2989998 -2.4119999 13
