# .PCD v0.7 - Point Cloud Data file format
VERSION 0.7
FIELDS x y z intensity
SIZE 4 4 4 4
TYPE F F F F
COUNT 1 1 1 1
WIDTH 1646
HEIGHT 1
VIEWPOINT 0 0 0 1 0 0 0
POINTS 1646
DATA ascii
5.756 5.033 -0.097999997 26
20.301001 17.929001 0.54000002 16
20.24 18.122999 1.409 9
6.8579998 6.0609999 0.030999999 1
20.183001 18.035999 0.95599997 42
20.507999 18.636999 1.897 22
6.1599998 5.4640002 -0.115 23
12.387 11.094 0.31299999 4
20.950001 19.02 1.434 23
9.1260004 8.1789999 0.028000001 41
20.038 18.157 0.92400002 37
20.344 18.745001 1.86 23
13.222 12.009 0.315 0
20.657 19.018 1.3890001 13
8.9980001 8.1780005 0.014 32
80.900002 74.323997 3.6270001 52
20.143 18.816 1.819 17
13.316 12.261 0.29699999 1
5.5159998 5.0830002 0 8
21.790001 20.297001 0.94400001 5
19.959 18.903999 1.778 18
5.559 5.1420002 -0.132 28
12.943 12.083 0.26899999 0
20.223 19.134001 1.306 8
8.5310001 7.9710002 -0.014 13
21.767 20.552999 0.91000003 19
19.822001 19.030001 1.7410001 21
4.5170002 4.237 -0.116 16
10.741 10.167 0.205 2
20.171 19.348 1.273 9
7.8829999 7.4689999 -0.028000001 21
21.614 20.688999 0.87099999 14
10.167 9.8929996 0.87900001 4
3.8469999 3.658 -0.106 12
10.442 10.018 0.18099999 9
5.8340001 5.6030002 -0.032000002 5
19.424 18.846001 0.74800003 2
10.13 9.9919996 0.861 7
3.714 3.5810001 -0.11 12
10.434 10.147 0.162 20
10.197 10.046 0.611 11
5.3179998 5.1760001 -0.039000001 6
10.229 10.058 0.375 20
10.561 10.555 0.88099998 9
3.665 3.582 -0.117 9
10.111 9.967 0.13600001 23
10.111 10.097 0.588 21
7.0570002 6.9629998 -0.067000002 10
10.151 10.115 0.354 22
13.145 13.312 1.075 3
2.0799999 2.0599999 -0.071000002 4
9.4750004 9.4639997 0.108 16
13.01 13.163 0.73400003 1
6.4780002 6.4790001 -0.075999998 34
10.143 10.242 0.333 5
9.8260002 10.084 0.78600001 11
3.7179999 3.733 -0.13600001 10
7.6680002 7.7610002 0.071999997 9
12.928 13.25 0.704 1
5.9949999 6.0749998 -0.083999999 27
10.263 10.499 0.31600001 1
20.273001 21.075001 1.584 11
4.0190001 4.0900002 -0.15700001 13
7.645 7.8410001 0.054000001 20
21.808001 22.648001 1.143 11
5.8049998 5.9619999 -0.094999999 23
10.021 10.385 0.287 1
20.950001 22.058001 1.596 14
3.8510001 3.973 -0.16 14
7.415 7.7049999 0.035 26
21.948999 23.087999 1.104 10
5.6279998 5.8569999 -0.107 23
7.6459999 8.0270004 0.20100001 0
20.083 21.417999 1.488 12
3.7869999 3.9590001 -0.168 15
7.3449998 7.7319999 0.017000001 22
21.742001 23.160999 1.045 9
3.744 3.948 -0.081 0
12.424 13.211 0.29699999 19
2.7609999 2.9809999 0.198 5
4.0359998 4.2750001 -0.191 15
7.1799998 7.6560001 -0.0020000001 23
21.792999 23.511 0.995 3
3.5739999 3.8180001 -0.086000003 3
9.9949999 10.763 0.215 1
2.7249999 2.98 0.189 16
3.4189999 3.668 -0.171 14
3.0539999 3.2980001 -0.0089999996 2
4.9359999 5.3400002 -0.134 18
7.4569998 8.1309996 0.14 0
2.697 2.9849999 0.18099999 17
6.8309999 7.4710002 -0.039000001 17
19.059 21.072001 0.77499998 3
2.9760001 3.2609999 -0.090000004 0
8.8280001 9.7440004 0.141 2
2.5510001 2.858 0.16500001 15
2.971 3.2720001 -0.167 13
6.2459998 6.9159999 -0.054000001 24
2.677 2.9960001 0.101 4
2.967 3.2920001 -0.097999997 2
8.3859997 9.3699999 0.111 9
2.5120001 2.8469999 0.156 17
3.0339999 3.385 -0.18099999 16
4.8369999 5.4219999 -0.056000002 0
2.6229999 2.971 0.092 24
4.7620001 5.3509998 -0.17399999 11
2.5780001 2.915 0.026000001 11
2.506 2.8740001 0.148 17
5.8119998 6.5939999 -0.086000003 16
2.5869999 2.964 0.082999997 29
4.559 5.1859999 -0.18099999 6
2.5250001 2.8889999 0.017999999 32
2.4779999 2.8740001 0.139 31
2.5179999 2.8800001 -0.168 28
2.543 2.9200001 -0.046 12
2.4909999 2.8870001 0.071999997 39
2.5 2.878 -0.108 20
2.4890001 2.881 0.0089999996 25
2.4519999 2.8759999 0.131 26
2.464 2.8529999 -0.17299999 24
2.484 2.885 -0.052999999 36
2.4579999 2.881 0.063000001 32
2.467 2.8740001 -0.115 34
2.4579999 2.878 0.001 32
2.434 2.8859999 0.122 38
2.4349999 2.8540001 -0.18000001 32
2.447 2.8759999 -0.061000001 41
2.438 2.8889999 0.055 37
2.4419999 2.8789999 -0.123 38
2.428 2.8740001 -0.0070000002 38
2.424 2.905 0.113 39
2.411 2.8599999 -0.18799999 29
2.418 2.8740001 -0.068999998 37
2.4119999 2.8889999 0.046 41
2.404 2.8670001 -0.13 35
2.4070001 2.881 -0.015 37
2.4030001 2.9100001 0.104 29
2.382 2.859 -0.19599999 32
2.4000001 2.8840001 -0.078000002 44
2.3929999 2.8959999 0.037 39
1.896 2.2869999 -0.111 25
2.391 2.8929999 -0.024 38
2.369 2.8970001 0.094999999 36
1.812 2.2 -0.156 27
2.3789999 2.8900001 -0.086000003 38
2.382 2.9119999 0.028000001 50
2.362 2.8800001 -0.148 31
2.3770001 2.905 -0.033 37
2.3510001 2.9030001 0.085000001 36
1.874 2.302 -0.17 20
2.3740001 2.914 -0.096000001 33
2.369 2.925 0.018999999 50
2.3510001 2.8970001 -0.15700001 27
2.378 2.9360001 -0.041999999 33
2.3399999 2.9170001 0.075999998 40
2.1900001 2.72 -0.20900001 14
2.3659999 2.9349999 -0.106 32
2.3599999 2.9419999 0.0089999996 34
2.2060001 2.7490001 -0.15700001 18
2.3889999 2.9779999 -0.052999999 41
2.3340001 2.9349999 0.067000002 37
2.0439999 2.566 -0.204 13
2.378 2.9779999 -0.116 35
2.362 2.971 0 43
2.24 2.819 -0.169 24
2.3940001 3.0109999 -0.063000001 28
2.3410001 2.97 0.057 38
1.885 2.392 -0.197 25
2.3610001 2.9849999 -0.126 19
2.402 3.0469999 -0.0089999996 13
2.253 2.8629999 -0.18000001 15
4.6719999 5.9299998 -0.14300001 17
2.3469999 3.0009999 0.048 29
1.772 2.2709999 -0.19400001 22
5.4460001 6.967 -0.046 17
1.902 2.4400001 -0.161 19
4.566 5.8449998 -0.16 16
2.369 3.053 0.037999999 5
1.877 2.4300001 -0.215 16
2.2939999 2.9519999 -0.14300001 15
5.4029999 6.9660001 -0.068999998 16
2.1989999 2.848 -0.197 17
2.2490001 2.9030001 -0.089000002 0
7.0710001 9.1780005 0.082999997 1
1.842 2.4070001 -0.22 16
2.0090001 2.608 -0.13500001 16
5.2410002 6.8060002 -0.090000004 18
2.1300001 2.783 -0.20200001 20
3.5929999 4.671 -0.15899999 12
7.0630002 9.2270002 0.050999999 4
1.732 2.2850001 -0.21600001 11
2.2639999 2.9619999 -0.163 14
5.0289998 6.5760002 -0.111 20
2.049 2.698 -0.204 13
2.148 2.813 -0.105 7
5.448 7.1609998 0.015 1
1.781 2.369 -0.23199999 5
2.2219999 2.9289999 -0.171 15
4.7199998 6.211 -0.126 17
1.633 2.168 -0.171 8
1.888 2.4890001 -0.102 7
5.671 7.4949999 -0.011 7
1.767 2.3699999 -0.23999999 1
1.682 2.2320001 -0.138 10
2.1029999 2.7839999 -0.066 12
1.895 2.533 -0.208 3
2.1530001 2.855 -0.126 3
5.4330001 7.217 -0.035999998 10
1.755 2.372 -0.248 0
2.1259999 2.839 -0.185 6
4.3839998 5.8330002 -0.15899999 9
1.876 2.526 -0.21699999 1
2.743 3.658 -0.175 3
2.099 2.8010001 -0.024 4
2.247 3.0190001 -0.207 1
4.2069998 5.6220002 -0.17399999 2
2.7219999 3.6489999 -0.18700001 2
4.6609998 6.2420001 -0.075999998 8
3.7449999 5.0250001 -0.17299999 1
4.6149998 6.198 -0.097999997 10
3.605 4.8530002 -0.185 1
4.5469999 6.1220002 -0.119 8
4.473 6.033 -0.14 2
4.3530002 5.8769999 -0.15800001 1
3.678 4.9660001 -0.17 0
3.566 4.8109999 -0.182 0
3.4979999 4.711 -0.19599999 4
3.2030001 4.3039999 -0.19499999 11
2.2190001 2.993 -0.20200001 2
2.9360001 3.9330001 -0.193 9
2.224 2.9920001 -0.213 3
2.5239999 3.369 -0.177 9
2.1370001 2.865 -0.215 6
2.2390001 2.9760001 -0.168 11
2.0780001 2.7739999 -0.21799999 9
1.858 2.497 -0.248 1
1.795 2.3740001 -0.142 12
1.824 2.4230001 -0.2 8
1.7 2.2750001 -0.234 3
2.132 2.803 -0.178 20
1.636 2.1630001 -0.186 14
1.752 2.332 -0.249 5
2.1400001 2.7969999 -0.189 21
1.671 2.1949999 -0.197 14
1.602 2.1210001 -0.235 11
2.161 2.806 -0.199 18
1.219 1.631 -0.215 3
1.816 2.3699999 -0.222 15
1.696 2.2309999 -0.255 16
2.0439999 2.6359999 -0.197 19
1.234 1.64 -0.222 4
1.872 2.4260001 -0.236 19
1.272 1.661 -0.19599999 13
1.947 2.4909999 -0.19499999 18
1.187 1.567 -0.21799999 11
1.853 2.3840001 -0.241 18
1.4630001 1.896 -0.23100001 15
1.8789999 2.3840001 -0.19499999 20
1.193 1.563 -0.22400001 14
1.829 2.3329999 -0.244 20
1.081 1.436 -0.236 4
1.707 2.1949999 -0.27599999 15
1.88 2.365 -0.20200001 19
1.2920001 1.678 -0.24699999 13
1.747 2.21 -0.23999999 21
1.14 1.503 -0.25299999 9
1.636 2.086 -0.27000001 14
1.845 2.3 -0.205 17
1.228 1.582 -0.23899999 13
1.796 2.2520001 -0.252 20
1.204 1.574 -0.271 12
1.202 1.52 -0.20200001 14
1.772 2.1889999 -0.20299999 26
1.033 1.3710001 -0.26699999 3
1.211 1.5470001 -0.23999999 14
1.813 2.2509999 -0.26100001 24
1.092 1.414 -0.249 13
1.209 1.5140001 -0.207 21
1.89 2.312 -0.222 21
1.062 1.397 -0.278 8
1.25 1.581 -0.25099999 18
1.821 2.2390001 -0.26699999 21
1.132 1.452 -0.26199999 15
1.302 1.614 -0.227 11
1.908 2.3099999 -0.23 18
1.068 1.391 -0.28200001 14
1.186 1.485 -0.241 17
1.682 2.0480001 -0.252 20
1.1160001 1.418 -0.26100001 12
1.323 1.623 -0.234 16
1.809 2.1670001 -0.22400001 17
1.064 1.373 -0.28400001 13
1.248 1.5470001 -0.257 13
1.846 2.223 -0.28099999 23
1.0880001 1.367 -0.257 12
1.242 1.5089999 -0.223 13
1.788 2.119 -0.226 15
0.977 1.247 -0.26300001 13
1.2180001 1.494 -0.25400001 22
1.448 1.726 -0.22499999 13
1.1569999 1.439 -0.27599999 12
1.251 1.503 -0.228 11
1.745 2.0450001 -0.22499999 21
1.232 1.494 -0.25999999 13
1.597 1.882 -0.25099999 18
1.396 1.658 -0.25799999 18
1.447 1.676 -0.19 8
1.076 1.3430001 -0.294 16
1.173 1.406 -0.25 17
1.363 1.587 -0.21799999 16
1.002 1.2180001 -0.243 12
1.211 1.423 -0.226 15
1.909 2.187 -0.25600001 21
1.006 1.2410001 -0.27700001 13
1.1799999 1.399 -0.25400001 17
1.399 1.6109999 -0.227 17
1.003 1.204 -0.245 14
1.224 1.421 -0.23100001 16
1.865 2.1110001 -0.25400001 21
0.92199999 1.124 -0.255 17
1.174 1.375 -0.255 14
1.563 1.778 -0.25600001 20
1.081 1.283 -0.266 13
1.402 1.607 -0.26699999 17
1.924 2.152 -0.266 23
0.94999999 1.1440001 -0.264 16
1.199 1.387 -0.26199999 15
1.61 1.8099999 -0.26699999 20
1.031 1.209 -0.255 15
1.359 1.54 -0.26199999 18
1.916 2.1159999 -0.26899999 28
0.96100003 1.142 -0.26899999 22
1.216 1.39 -0.26800001 17
1.485 1.649 -0.249 17
1.048 1.2130001 -0.26100001 15
1.436 1.607 -0.27900001 16
1.862 2.0309999 -0.26499999 24
0.99599999 1.168 -0.28 20
1.284 1.449 -0.285 16
1.525 1.6720001 -0.259 19
0.97100002 1.11 -0.243 19
1.51 1.668 -0.296 18
1.661 1.789 -0.23899999 20
0.99800003 1.156 -0.28099999 18
1.16 1.2920001 -0.259 17
1.501 1.625 -0.257 24
1.0140001 1.1440001 -0.255 17
1.397 1.524 -0.27599999 24
1.757 1.868 -0.25600001 23
0.96200001 1.099 -0.27200001 20
1.299 1.429 -0.292 15
1.433 1.531 -0.24699999 23
1.038 1.156 -0.26199999 14
1.409 1.517 -0.28 22
1.5549999 1.633 -0.229 27
0.97000003 1.094 -0.27500001 16
1.204 1.307 -0.27200001 12
1.42 1.497 -0.24699999 21
1.068 1.173 -0.271 13
1.336 1.419 -0.26699999 24
1.605 1.663 -0.23800001 24
0.94499999 1.051 -0.26800001 22
1.168 1.251 -0.264 15
1.348 1.403 -0.236 21
1.063 1.152 -0.27000001 18
1.471 1.543 -0.29499999 32
1.651 1.687 -0.24699999 28
0.921 1.01 -0.26199999 20
1.128 1.191 -0.25600001 18
1.527 1.568 -0.26899999 18
1.0549999 1.128 -0.26899999 23
1.508 1.5599999 -0.30399999 21
1.482 1.495 -0.22400001 18
0.93900001 1.015 -0.26699999 23
1.1390001 1.188 -0.25999999 16
1.533 1.553 -0.27200001 21
1.0700001 1.128 -0.273 19
1.2819999 1.308 -0.25999999 17
1.73 1.722 -0.264 20
0.875 0.93300003 -0.25 14
1.118 1.15 -0.25600001 17
1.399 1.398 -0.249 17
1.107 1.151 -0.28299999 20
1.227 1.235 -0.25 14
1.689 1.658 -0.259 27
0.97299999 1.022 -0.278 22
1.151 1.1670001 -0.264 14
1.5369999 1.516 -0.27599999 24
1.028 1.054 -0.26300001 16
1.132 1.123 -0.23100001 9
1.761 1.705 -0.27200001 19
0.972 1.007 -0.278 25
1.151 1.15 -0.264 16
1.562 1.518 -0.28099999 22
1.05 1.061 -0.26899999 16
1.103 1.079 -0.226 13
1.595 1.523 -0.248 26
0.87 0.889 -0.249 19
1.132 1.115 -0.26100001 14
1.545 1.4809999 -0.27900001 26
1.08 1.076 -0.27700001 18
1.261 1.2180001 -0.259 15
1.288 1.2130001 -0.20100001 27
0.86799997 0.87400001 -0.248 15
1.115 1.0829999 -0.257 15
1.482 1.401 -0.26899999 21
1.03 1.011 -0.26499999 17
1.299 1.2359999 -0.26699999 17
1.6799999 1.5599999 -0.26300001 28
1.082 1.073 -0.30899999 20
1.074 1.029 -0.248 11
1.541 1.436 -0.28 25
1.0650001 1.031 -0.27399999 17
1.239 1.1619999 -0.255 16
1.785 1.6339999 -0.28099999 30
1.025 1.001 -0.292 22
1.115 1.053 -0.25799999 13
1.449 1.331 -0.264 27
1.0700001 1.02 -0.27500001 14
1.2180001 1.126 -0.25099999 22
1.675 1.511 -0.264 34
0.89200002 0.85799998 -0.25400001 19
1.175 1.0930001 -0.271 23
1.296 1.174 -0.237 19
1.1160001 1.048 -0.287 17
1.214 1.1059999 -0.25099999 14
1.761 1.567 -0.27900001 38
0.93199998 0.884 -0.26499999 15
1.1109999 1.0190001 -0.257 14
1.2539999 1.12 -0.23 15
1.154 1.068 -0.296 23
1.14 1.024 -0.236 15
1.2460001 1.0930001 -0.198 20
0.852 0.79500002 -0.242 15
1.105 0.99800003 -0.255 10
1.3049999 1.148 -0.23899999 14
1.086 0.99000001 -0.278 13
1.192 1.0549999 -0.24600001 12
1.737 1.501 -0.27700001 43
1.052 0.96799999 -0.29800001 27
1.2180001 1.084 -0.28099999 13
1.3559999 1.176 -0.249 15
1.191 1.069 -0.30500001 25
1.323 1.154 -0.27399999 16
1.903 1.6210001 -0.30399999 46
1.026 0.93000001 -0.29100001 26
1.274 1.117 -0.294 14
1.475 1.26 -0.271 23
1.126 0.99599999 -0.28799999 15
1.293 1.1109999 -0.26800001 18
1.876 1.575 -0.30000001 42
0.85600001 0.764 -0.242 14
1.262 1.09 -0.29100001 19
1.523 1.2819999 -0.28 24
0.954 0.83200002 -0.244 12
1.319 1.117 -0.273 21
1.4529999 1.201 -0.23199999 30
0.88599998 0.778 -0.25 14
1.2819999 1.091 -0.29499999 13
1.387 1.151 -0.255 17
1.145 0.98199999 -0.292 18
1.294 1.079 -0.26699999 16
1.669 1.36 -0.26699999 33
1.099 0.94999999 -0.30899999 19
1.226 1.027 -0.28200001 16
1.391 1.137 -0.25600001 15
1.188 1.0039999 -0.30199999 18
1.398 1.148 -0.289 16
1.8660001 1.499 -0.29899999 27
1.067 0.90899998 -0.29899999 26
1.235 1.0190001 -0.28400001 13
1.477 1.189 -0.271 17
1.242 1.034 -0.315 24
1.373 1.1109999 -0.28299999 16
1.775 1.404 -0.285 34
1.063 0.89099997 -0.29699999 22
1.247 1.0140001 -0.28600001 18
1.625 1.289 -0.29899999 18
1.227 1.006 -0.31099999 18
1.385 1.104 -0.285 15
1.596 1.243 -0.25600001 42
1.143 0.94300002 -0.31900001 30
1.214 0.972 -0.278 15
1.595 1.245 -0.29300001 14
1.1569999 0.93400002 -0.292 16
1.365 1.071 -0.28099999 15
1.837 1.41 -0.294 38
0.93400002 0.759 -0.25999999 19
1.244 0.98000002 -0.28400001 16
1.52 1.169 -0.278 15
1.229 0.97600001 -0.31 18
1.349 1.043 -0.27700001 16
1.719 1.299 -0.27500001 28
1.0700001 0.85600001 -0.29699999 23
1.286 0.99800003 -0.29300001 15
1.72 1.303 -0.315 21
1.006 0.787 -0.25299999 14
1.375 1.046 -0.28200001 15
1.9299999 1.437 -0.30899999 45
1.227 0.96499997 -0.33899999 32
1.289 0.98500001 -0.29300001 12
1.46 1.089 -0.26699999 14
1.276 0.98199999 -0.31999999 18
1.498 1.122 -0.30599999 16
1.7819999 1.306 -0.285 39
1.0650001 0.82499999 -0.294 17
1.304 0.98100001 -0.296 16
1.7309999 1.272 -0.31600001 25
1.118 0.847 -0.27900001 16
1.377 1.016 -0.28099999 14
1.8150001 1.3099999 -0.28999999 37
0.94700003 0.72100002 -0.25999999 15
1.367 1.012 -0.30899999 14
1.745 1.261 -0.31799999 30
1.29 0.96200001 -0.32100001 21
1.414 1.027 -0.28799999 11
1.842 1.309 -0.294 39
1.233 0.92500001 -0.33700001 25
1.291 0.94 -0.29100001 10
1.745 1.242 -0.317 26
1.1569999 0.84899998 -0.287 12
1.377 0.98400003 -0.28 17
1.781 1.2460001 -0.28400001 48
1.138 0.83899999 -0.31 19
1.295 0.92900002 -0.29100001 11
1.5599999 1.0930001 -0.28299999 16
1.307 0.94400001 -0.32300001 19
1.467 1.0319999 -0.29699999 13
1.749 1.204 -0.278 26
1.178 0.85500002 -0.31999999 22
1.385 0.977 -0.31 13
1.572 1.084 -0.28400001 24
1.3380001 0.95099998 -0.33000001 29
1.567 1.085 -0.317 15
1.761 1.194 -0.27900001 40
1.187 0.847 -0.32100001 24
1.405 0.97600001 -0.31400001 17
1.6059999 1.09 -0.28999999 17
1.326 0.92699999 -0.32600001 20
1.4220001 0.96899998 -0.28600001 16
1.652 1.102 -0.26100001 25
1.036 0.72799999 -0.27900001 14
1.39 0.949 -0.30899999 16
1.523 1.018 -0.27399999 15
1.3609999 0.93599999 -0.333 14
1.429 0.958 -0.287 17
1.656 1.087 -0.26100001 27
1.141 0.78799999 -0.30599999 16
1.439 0.96700001 -0.31900001 13
1.6390001 1.077 -0.294 18
1.3049999 0.88300002 -0.31799999 19
1.619 1.068 -0.324 22
1.666 1.076 -0.26199999 32
1.1 0.74699998 -0.294 20
1.382 0.91399997 -0.30599999 14
1.561 1.01 -0.27900001 18
1.3789999 0.917 -0.33500001 21
1.553 1.008 -0.31 18
1.693 1.077 -0.266 29
0.991 0.662 -0.264 15
1.385 0.90100002 -0.30500001 16
1.6900001 1.075 -0.301 22
1.14 0.74599999 -0.27599999 11
1.579 1.008 -0.31400001 17
1.687 1.0549999 -0.264 25
0.96200001 0.63200003 -0.255 15
1.387 0.88700002 -0.30500001 13
1.677 1.049 -0.29800001 21
1.2079999 0.77700001 -0.29100001 14
1.5420001 0.96799999 -0.30599999 16
1.7 1.046 -0.26499999 25
0.977 0.63099998 -0.25799999 13
1.4680001 0.92299998 -0.32100001 13
1.651 1.016 -0.292 17
1.12 0.708 -0.26899999 13
1.575 0.97299999 -0.31099999 19
1.71 1.035 -0.266 25
1.038 0.65899998 -0.273 13
1.4170001 0.87599999 -0.30899999 14
1.688 1.022 -0.29800001 17
1.103 0.68599999 -0.264 9
1.647 1 -0.324 18
1.727 1.028 -0.26800001 33
1.064 0.66399997 -0.27900001 15
1.41 0.85699999 -0.30599999 13
1.689 1.006 -0.29699999 15
1.181 0.722 -0.28099999 11
1.624 0.97000003 -0.31799999 22
1.7690001 1.036 -0.273 38
1.115 0.68400002 -0.29100001 20
1.483 0.88700002 -0.32100001 14
1.6799999 0.98299998 -0.294 17
1.296 0.778 -0.30700001 12
1.684 0.98799998 -0.329 19
1.7359999 0.99900001 -0.26699999 32
1.14 0.68699998 -0.296 15
1.575 0.926 -0.33899999 14
1.743 1.003 -0.30399999 21
1.3710001 0.81 -0.324 13
1.661 0.958 -0.32300001 19
1.745 0.98699999 -0.26800001 29
1.153 0.68300003 -0.29800001 18
1.489 0.86000001 -0.31900001 13
1.482 0.838 -0.25799999 18
1.296 0.75199997 -0.30500001 13
1.47 0.833 -0.285 12
1.74 0.96799999 -0.266 28
1.0549999 0.61400002 -0.271 14
1.4910001 0.84600002 -0.31799999 12
1.721 0.95700002 -0.29800001 21
1.25 0.713 -0.29300001 14
1.467 0.81699997 -0.28299999 16
1.8099999 0.99000001 -0.27599999 34
1.123 0.64200002 -0.28799999 15
1.376 0.76700002 -0.29300001 11
1.773 0.96899998 -0.30599999 21
1.347 0.75400001 -0.31400001 12
1.483 0.81199998 -0.285 12
1.799 0.96600002 -0.273 29
1.29 0.72399998 -0.329 19
1.257 0.68800002 -0.266 8
1.7359999 0.93199998 -0.29899999 16
1.164 0.64099997 -0.27000001 10
1.513 0.81400001 -0.289 15
1.8279999 0.96499997 -0.27599999 29
1.158 0.63800001 -0.294 14
1.377 0.741 -0.28999999 9
1.761 0.92799997 -0.30199999 17
1.252 0.676 -0.289 10
1.693 0.89499998 -0.32300001 17
1.8890001 0.98000002 -0.28400001 25
1.026 0.55500001 -0.259 14
1.267 0.66900003 -0.266 8
1.8099999 0.93699998 -0.30899999 21
1.214 0.64399999 -0.27900001 12
1.313 0.68099999 -0.249 9
1.85 0.94199997 -0.27700001 25
1.145 0.60799998 -0.28799999 17
1.242 0.64399999 -0.25999999 8
1.696 0.86299998 -0.28799999 13
1.209 0.63 -0.27700001 11
1.602 0.81599998 -0.303 15
1.961 0.98100001 -0.29300001 29
1.202 0.62699997 -0.301 15
1.353 0.68900001 -0.28200001 9
1.566 0.78200001 -0.26499999 10
1.206 0.61699998 -0.27500001 11
1.525 0.76300001 -0.287 10
1.892 0.92900002 -0.28099999 32
1.152 0.58999997 -0.287 19
1.362 0.68099999 -0.28200001 9
1.497 0.73400003 -0.252 12
1.206 0.60500002 -0.27399999 11
1.415 0.69499999 -0.26499999 10
2.1530001 1.038 -0.31900001 44
1.2180001 0.61199999 -0.30199999 13
1.326 0.65100002 -0.273 8
1.753 0.84399998 -0.294 21
1.228 0.60500002 -0.27700001 9
1.3839999 0.667 -0.25799999 8
2.1849999 1.034 -0.322 39
1.194 0.588 -0.29499999 14
1.321 0.63599998 -0.271 7
1.8839999 0.88999999 -0.315 15
1.225 0.59200001 -0.27599999 9
1.484 0.70200002 -0.27500001 8
1.719 0.79900002 -0.252 19
1.2359999 0.59799999 -0.30399999 15
1.316 0.62199998 -0.26899999 7
1.799 0.83399999 -0.29899999 15
1.2309999 0.583 -0.27599999 10
1.48 0.68699998 -0.27399999 8
2.211 1.008 -0.32300001 39
1.243 0.58899999 -0.30399999 17
1.3329999 0.61799997 -0.271 11
1.601 0.72799999 -0.26499999 12
1.314 0.611 -0.29300001 12
1.475 0.671 -0.271 9
1.962 0.87699997 -0.285 38
1.255 0.583 -0.30599999 20
1.359 0.61799997 -0.27500001 9
1.651 0.736 -0.27200001 11
1.346 0.61299998 -0.29899999 11
1.497 0.66799998 -0.27399999 9
2.0580001 0.90200001 -0.29800001 28
1.279 0.583 -0.31 15
1.373 0.61199999 -0.27700001 9
1.674 0.73199999 -0.27399999 10
1.3609999 0.60799998 -0.301 14
1.572 0.68699998 -0.287 10
1.8200001 0.78200001 -0.26199999 24
1.276 0.56999999 -0.308 19
1.41 0.616 -0.28299999 8
1.608 0.68900001 -0.26300001 8
1.321 0.57800001 -0.29100001 13
1.442 0.61799997 -0.26199999 8
1.924 0.81099999 -0.27599999 23
1.271 0.55599999 -0.30500001 21
1.398 0.59799999 -0.28 10
1.551 0.65100002 -0.252 10
1.368 0.58700001 -0.30000001 13
1.5140001 0.63599998 -0.27399999 10
1.943 0.80199999 -0.278 30
1.303 0.55800003 -0.31200001 22
1.411 0.59100002 -0.28099999 8
1.747 0.71899998 -0.28299999 11
1.382 0.58099997 -0.301 14
1.516 0.62400001 -0.273 9
1.526 0.61699998 -0.21699999 16
1.385 0.58099997 -0.33000001 23
1.48 0.60799998 -0.29300001 9
1.631 0.65799999 -0.26300001 9
1.392 0.57300001 -0.30199999 15
1.4450001 0.58200002 -0.259 10
1.995 0.79000002 -0.28200001 28
1.439 0.59200001 -0.34099999 21
1.485 0.597 -0.29300001 9
1.727 0.68199998 -0.27700001 14
1.399 0.56300002 -0.30199999 16
1.596 0.63 -0.285 10
1.937 0.75099999 -0.273 30
1.42 0.57099998 -0.33500001 19
1.531 0.602 -0.301 11
1.8710001 0.72299999 -0.29899999 16
1.428 0.56300002 -0.30700001 13
1.597 0.61699998 -0.28400001 9
1.997 0.75800002 -0.28 23
1.444 0.56800002 -0.33899999 19
1.487 0.57300001 -0.29100001 11
1.802 0.68199998 -0.287 13
1.459 0.56199998 -0.31299999 12
1.603 0.60600001 -0.28400001 9
1.9859999 0.73799998 -0.27700001 26
1.4299999 0.55000001 -0.33500001 22
1.5549999 0.58600003 -0.303 12
1.852 0.685 -0.29300001 13
1.4680001 0.55400002 -0.31299999 13
1.689 0.62400001 -0.29699999 14
1.83 0.66500002 -0.25400001 20
1.472 0.55400002 -0.34299999 22
1.586 0.58399999 -0.308 12
1.7640001 0.63800001 -0.278 14
1.492 0.55000001 -0.317 12
1.675 0.60500002 -0.294 13
1.8940001 0.67299998 -0.26199999 26
1.507 0.55400002 -0.34999999 30
1.5089999 0.54400003 -0.29100001 9
1.888 0.66799998 -0.296 14
1.521 0.54799998 -0.322 14
1.749 0.61799997 -0.30500001 10
1.974 0.68599999 -0.27200001 26
1.513 0.54400003 -0.34999999 18
1.5599999 0.54900002 -0.30000001 10
1.896 0.65600002 -0.296 18
1.522 0.53600001 -0.32100001 15
1.76 0.60799998 -0.30599999 9
2.039 0.69199997 -0.28 25
1.529 0.537 -0.352 21
1.552 0.53399998 -0.29699999 10
1.8890001 0.63800001 -0.294 14
1.557 0.53500003 -0.32699999 14
1.7130001 0.57800001 -0.29699999 10
1.9859999 0.65899998 -0.271 25
1.598 0.54799998 -0.366 18
1.5880001 0.53299999 -0.303 14
1.88 0.62 -0.29100001 13
1.628 0.546 -0.34 11
1.801 0.59299999 -0.31 13
2.053 0.66500002 -0.27900001 28
1.603 0.53600001 -0.366 23
1.6849999 0.55199999 -0.31999999 11
1.9960001 0.64200002 -0.308 15
1.744 0.57200003 -0.36300001 19
1.8609999 0.59799999 -0.31900001 13
2.1370001 0.67500001 -0.289 29
1.625 0.53100002 -0.36899999 26
1.824 0.583 -0.345 17
1.8710001 0.588 -0.287 13
1.706 0.54500002 -0.354 18
1.77 0.55500001 -0.303 11
2.102 0.648 -0.28299999 25
1.564 0.498 -0.354 18
1.755 0.54699999 -0.331 11
1.979 0.60600001 -0.303 12
1.688 0.52600002 -0.34900001 13
1.818 0.55500001 -0.31 11
2.2049999 0.66299999 -0.296 26
1.67 0.51800001 -0.377 14
1.779 0.54100001 -0.33399999 13
1.961 0.58499998 -0.29899999 13
1.743 0.52899998 -0.35800001 13
1.837 0.54699999 -0.31200001 15
2.036 0.597 -0.27200001 20
1.6720001 0.505 -0.37599999 10
1.829 0.54100001 -0.34200001 14
2.075 0.60299999 -0.315 15
1.72 0.509 -0.352 14
1.869 0.542 -0.31600001 13
2.1040001 0.60000002 -0.28 26
1.676 0.493 -0.375 9
1.852 0.53399998 -0.345 14
2.05 0.58099997 -0.31 14
1.652 0.47600001 -0.33700001 15
1.855 0.523 -0.31200001 15
2.132 0.59200001 -0.28200001 28
1.681 0.48100001 -0.375 9
1.832 0.51300001 -0.34 14
1.937 0.53399998 -0.29100001 14
1.648 0.461 -0.33500001 17
1.929 0.52999997 -0.32300001 12
2.1199999 0.57300001 -0.28 24
1.689 0.47 -0.375 9
1.895 0.51700002 -0.34999999 18
1.952 0.523 -0.29300001 13
1.674 0.45500001 -0.33899999 14
1.989 0.53100002 -0.33199999 15
2.191 0.57499999 -0.28799999 25
1.693 0.458 -0.375 9
1.924 0.50999999 -0.354 14
2.036 0.52999997 -0.30399999 13
1.804 0.477 -0.36399999 7
1.98 0.514 -0.329 13
2.1989999 0.56099999 -0.28799999 34
1.7029999 0.447 -0.37599999 9
1.967 0.50599998 -0.361 13
2.109 0.53299999 -0.31400001 17
1.826 0.46900001 -0.36700001 8
1.999 0.50300002 -0.331 14
2.2360001 0.55400002 -0.29100001 26
1.7130001 0.43599999 -0.37599999 11
2.027 0.50599998 -0.37099999 16
2.204 0.54100001 -0.32600001 17
1.882 0.46900001 -0.377 10
2.0580001 0.50199997 -0.34 17
2.26 0.54299998 -0.29300001 29
1.711 0.42300001 -0.375 11
2.0680001 0.50099999 -0.377 18
2.1670001 0.51599997 -0.31999999 18
1.899 0.458 -0.37900001 8
2.1289999 0.50400001 -0.34999999 18
2.2920001 0.53399998 -0.296 27
1.72 0.412 -0.37599999 8
2.082 0.48800001 -0.37799999 14
2.2809999 0.52600002 -0.33500001 23
1.9069999 0.44600001 -0.38 8
2.122 0.486 -0.34799999 16
2.3080001 0.52100003 -0.29699999 26
1.726 0.40000001 -0.37599999 8
2.092 0.47499999 -0.37900001 6
2.336 0.52100003 -0.34200001 22
1.91 0.43200001 -0.37900001 9
2.188 0.48500001 -0.35800001 23
2.4389999 0.53299999 -0.31299999 36
1.733 0.38800001 -0.37599999 7
2.092 0.46000001 -0.377 6
2.368 0.51099998 -0.34599999 24
1.9170001 0.419 -0.37900001 10
2.256 0.484 -0.368 15
2.602 0.54900002 -0.333 30
1.739 0.37599999 -0.37599999 8
2.1070001 0.447 -0.37900001 9
2.401 0.50099999 -0.34900001 23
1.926 0.40700001 -0.38 8
2.322 0.48100001 -0.377 17
2.53 0.51599997 -0.32300001 26
1.743 0.36399999 -0.37599999 8
2.112 0.43200001 -0.37900001 8
2.4389999 0.491 -0.354 23
1.933 0.39399999 -0.38 9
2.345 0.46799999 -0.38 11
2.582 0.50800002 -0.32800001 38
1.749 0.352 -0.37599999 8
2.112 0.417 -0.377 6
2.454 0.47600001 -0.35499999 21
1.936 0.38 -0.38 9
2.352 0.45300001 -0.38 9
2.6159999 0.49599999 -0.331 31
1.762 0.34200001 -0.37799999 14
2.1170001 0.40200001 -0.377 7
2.573 0.48100001 -0.37099999 20
1.9400001 0.366 -0.37900001 9
2.355 0.43599999 -0.37900001 10
2.642 0.48199999 -0.333 34
1.756 0.32699999 -0.375 10
2.118 0.38699999 -0.37599999 6
2.6240001 0.47099999 -0.377 13
1.949 0.354 -0.38 9
2.3640001 0.421 -0.37900001 7
2.608 0.45699999 -0.32800001 35
1.765 0.31600001 -0.37599999 8
2.1300001 0.37400001 -0.377 6
2.6300001 0.454 -0.377 10
1.9579999 0.34099999 -0.38100001 7
2.3740001 0.405 -0.38 7
2.7409999 0.461 -0.34400001 24
1.772 0.30399999 -0.377 8
2.141 0.36000001 -0.37799999 7
2.6270001 0.43399999 -0.375 9
1.959 0.32699999 -0.38 7
2.378 0.389 -0.37900001 7
2.694 0.43399999 -0.33700001 41
1.772 0.29100001 -0.37599999 8
2.148 0.34599999 -0.37900001 8
2.6459999 0.41800001 -0.377 10
1.9630001 0.31299999 -0.38 8
2.3740001 0.37099999 -0.37799999 8
2.7590001 0.42500001 -0.34400001 29
1.7819999 0.27900001 -0.377 9
2.1400001 0.329 -0.37599999 7
2.6429999 0.39899999 -0.37599999 9
1.966 0.29899999 -0.37900001 7
2.3770001 0.35499999 -0.377 7
2.793 0.41 -0.347 33
1.789 0.26800001 -0.37799999 9
2.152 0.315 -0.377 7
2.6500001 0.38100001 -0.37599999 9
1.972 0.28600001 -0.38 7
2.3840001 0.33899999 -0.377 7
2.9579999 0.414 -0.36700001 31
1.793 0.255 -0.37799999 10
2.1530001 0.30000001 -0.377 7
2.652 0.36300001 -0.375 9
1.982 0.273 -0.38100001 7
2.3859999 0.322 -0.377 7
2.9860001 0.39700001 -0.36899999 19
1.7970001 0.242 -0.37799999 11
2.161 0.28600001 -0.377 6
2.6559999 0.345 -0.375 9
1.989 0.25999999 -0.38100001 7
2.391 0.30599999 -0.377 7
2.997 0.377 -0.37 16
1.8 0.23 -0.377 10
2.1600001 0.27000001 -0.37599999 6
2.6689999 0.32800001 -0.37599999 10
1.992 0.24600001 -0.38100001 7
2.398 0.28999999 -0.377 7
3.0050001 0.35699999 -0.37 12
1.807 0.21799999 -0.37799999 9
2.1659999 0.255 -0.377 6
2.6670001 0.30899999 -0.37400001 9
1.992 0.23100001 -0.38 9
2.4059999 0.27399999 -0.377 8
3.013 0.33700001 -0.37 12
1.811 0.205 -0.37799999 8
2.1730001 0.241 -0.377 7
2.671 0.29100001 -0.37400001 9
1.998 0.21799999 -0.38100001 7
2.404 0.257 -0.37599999 7
3.016 0.317 -0.37 13
1.817 0.193 -0.37900001 9
2.175 0.226 -0.377 7
2.6830001 0.273 -0.375 9
2.0079999 0.205 -0.382 7
2.415 0.241 -0.37799999 8
3.0179999 0.296 -0.36899999 13
1.822 0.18000001 -0.37900001 10
2.1849999 0.211 -0.37799999 7
2.691 0.255 -0.37599999 8
2.0120001 0.191 -0.382 7
2.415 0.22400001 -0.377 7
3.027 0.27599999 -0.36899999 13
1.819 0.167 -0.37799999 9
2.1889999 0.19599999 -0.37799999 7
2.7019999 0.23800001 -0.37599999 10
2.0139999 0.177 -0.382 7
2.4230001 0.208 -0.37799999 8
3.0320001 0.25600001 -0.36899999 14
1.8279999 0.154 -0.37900001 11
2.191 0.18099999 -0.377 7
2.7079999 0.219 -0.377 9
2.0179999 0.163 -0.382 7
2.425 0.191 -0.377 7
3.046 0.236 -0.37 13
1.831 0.142 -0.37900001 11
2.2079999 0.167 -0.38 7
2.7130001 0.20100001 -0.377 8
2.0239999 0.149 -0.38299999 8
2.4300001 0.175 -0.377 7
3.049 0.215 -0.37 13
1.837 0.12899999 -0.38 11
2.217 0.152 -0.38100001 8
2.717 0.183 -0.377 8
2.026 0.13500001 -0.382 9
2.4360001 0.15800001 -0.37799999 8
3.0639999 0.19499999 -0.37099999 15
1.84 0.116 -0.38 10
2.214 0.13600001 -0.38 7
2.7219999 0.164 -0.377 8
2.0369999 0.121 -0.384 8
2.4349999 0.141 -0.377 7
3.0480001 0.17399999 -0.36899999 13
1.8380001 0.103 -0.38 9
2.2130001 0.121 -0.37900001 7
2.7219999 0.145 -0.37599999 8
2.0420001 0.107 -0.38499999 7
2.4400001 0.124 -0.37799999 7
3.063 0.153 -0.37 12
1.839 0.090000004 -0.37900001 9
2.2219999 0.106 -0.38 7
2.7260001 0.127 -0.37599999 8
2.039 0.092 -0.384 7
2.4289999 0.107 -0.375 7
3.0699999 0.133 -0.37099999 11
1.84 0.077 -0.37900001 9
2.224 0.090000004 -0.38 7
2.7420001 0.108 -0.37799999 9
2.0439999 0.078000002 -0.384 7
2.4349999 0.090000004 -0.37599999 7
3.069 0.112 -0.37 11
1.842 0.064000003 -0.37900001 9
2.2290001 0.075000003 -0.38100001 7
2.7420001 0.090000004 -0.37799999 10
2.049 0.064000003 -0.38499999 7
2.447 0.074000001 -0.37799999 7
3.089 0.090999998 -0.37200001 11
1.849 0.050999999 -0.38100001 9
2.234 0.059999999 -0.382 7
2.7390001 0.071000002 -0.377 9
2.033 0.048999999 -0.382 7
2.4460001 0.057 -0.377 7
3.089 0.07 -0.37200001 11
1.841 0.037999999 -0.37900001 9
2.234 0.044 -0.38100001 8
2.7449999 0.052000001 -0.37799999 9
2.0409999 0.035 -0.38299999 7
2.447 0.039999999 -0.377 7
3.099 0.048999999 -0.373 11
1.847 0.025 -0.38 8
2.244 0.028999999 -0.38299999 9
2.7479999 0.033 -0.37799999 9
2.0550001 0.021 -0.38499999 9
2.448 0.023 -0.377 8
3.1040001 0.028000001 -0.373 12
1.847 0.012 -0.37900001 8
2.2349999 0.013 -0.38100001 8
2.753 0.015 -0.37799999 9
2.0480001 0.0070000002 -0.384 8
2.4430001 0.0060000001 -0.37599999 7
3.1110001 0.0070000002 -0.37400001 13
1.848 0 -0.38 8
2.2320001 -0.0020000001 -0.38 6
2.753 -0.003 -0.37799999 9
2.033 -0.0070000002 -0.38100001 7
2.4449999 -0.0089999996 -0.37599999 7
3.112 -0.013 -0.37400001 13
1.8430001 -0.013 -0.37799999 9
2.2309999 -0.017000001 -0.38 7
2.7590001 -0.022 -0.37900001 9
2.03 -0.021 -0.38 7
2.4489999 -0.026000001 -0.377 8
3.1159999 -0.034000002 -0.37400001 12
1.845 -0.026000001 -0.37900001 10
2.2279999 -0.032000002 -0.38 6
2.7650001 -0.041000001 -0.38 9
2.023 -0.035 -0.37900001 6
2.46 -0.043000001 -0.37799999 7
3.1159999 -0.055 -0.37400001 12
1.848 -0.039000001 -0.38 9
2.2360001 -0.048 -0.38100001 7
2.7690001 -0.059999999 -0.38 9
2.027 -0.048999999 -0.38 6
2.4590001 -0.059999999 -0.37799999 7
3.118 -0.075999998 -0.37400001 13
1.858 -0.052000001 -0.38100001 10
2.2360001 -0.063000001 -0.38100001 6
2.7720001 -0.079000004 -0.38100001 10
2.0250001 -0.063000001 -0.37900001 6
2.4590001 -0.077 -0.37799999 6
3.1300001 -0.097999997 -0.37599999 15
1.857 -0.066 -0.38100001 9
2.2420001 -0.079000004 -0.382 8
2.7809999 -0.097999997 -0.382 10
2.0280001 -0.077 -0.38 7
2.46 -0.093999997 -0.37799999 7
3.1140001 -0.118 -0.37400001 13
1.855 -0.079000004 -0.38100001 9
2.24 -0.094999999 -0.382 8
2.776 -0.117 -0.38100001 9
2.0309999 -0.092 -0.38100001 7
2.4630001 -0.111 -0.37900001 7
3.118 -0.139 -0.37400001 12
1.8559999 -0.092 -0.38100001 9
2.2320001 -0.109 -0.38 7
2.7679999 -0.13500001 -0.38 8
2.03 -0.106 -0.38100001 7
2.4579999 -0.12800001 -0.37799999 7
3.108 -0.16 -0.373 13
1.858 -0.105 -0.382 9
2.2290001 -0.125 -0.38 6
2.7650001 -0.154 -0.38 8
2.0339999 -0.12 -0.382 7
2.4579999 -0.145 -0.37900001 7
3.1129999 -0.18099999 -0.37400001 12
1.857 -0.118 -0.382 9
2.2290001 -0.14 -0.38 6
2.7679999 -0.17299999 -0.38100001 8
2.049 -0.13500001 -0.38499999 8
2.461 -0.162 -0.37900001 7
3.1099999 -0.20200001 -0.37400001 13
1.857 -0.131 -0.382 9
2.2190001 -0.155 -0.37900001 6
2.7679999 -0.192 -0.38100001 8
2.03 -0.148 -0.38100001 7
2.4649999 -0.17900001 -0.38 7
3.1110001 -0.22400001 -0.37400001 14
1.848 -0.14300001 -0.38100001 9
2.22 -0.17 -0.37900001 6
2.7639999 -0.20999999 -0.38100001 9
2.0239999 -0.162 -0.38 7
2.4579999 -0.19499999 -0.37900001 8
3.1159999 -0.245 -0.375 12
1.854 -0.15700001 -0.382 9
2.2179999 -0.186 -0.37900001 7
2.7650001 -0.229 -0.38100001 10
2.0220001 -0.176 -0.38 7
2.4590001 -0.212 -0.38 7
3.1110001 -0.266 -0.375 13
1.85 -0.169 -0.382 8
2.221 -0.20100001 -0.38 7
2.757 -0.248 -0.38 9
2.029 -0.191 -0.382 6
2.46 -0.229 -0.38 7
3.1129999 -0.287 -0.375 12
1.849 -0.182 -0.382 9
2.2249999 -0.21699999 -0.38100001 7
2.7449999 -0.26499999 -0.37900001 8
2.023 -0.204 -0.38100001 6
2.4489999 -0.245 -0.37900001 7
3.1129999 -0.308 -0.37599999 12
1.85 -0.19599999 -0.382 10
2.2179999 -0.23199999 -0.38 7
2.7550001 -0.285 -0.38100001 10
2.023 -0.21799999 -0.382 7
2.447 -0.26199999 -0.37900001 7
3.118 -0.33000001 -0.377 12
1.849 -0.20900001 -0.38299999 10
2.2149999 -0.24699999 -0.38 7
2.7520001 -0.30399999 -0.38100001 10
2.0250001 -0.233 -0.382 7
2.4419999 -0.278 -0.37900001 6
3.1229999 -0.352 -0.37799999 13
1.846 -0.221 -0.382 11
2.2160001 -0.26199999 -0.38100001 7
2.7539999 -0.32300001 -0.382 9
2.023 -0.24699999 -0.382 7
2.437 -0.294 -0.37799999 6
3.115 -0.37200001 -0.377 13
1.8430001 -0.234 -0.382 9
2.217 -0.278 -0.38100001 7
2.76 -0.34299999 -0.38299999 10
2.0139999 -0.25999999 -0.38100001 7
2.437 -0.31099999 -0.37900001 7
3.1159999 -0.39300001 -0.37799999 13
1.832 -0.24600001 -0.38100001 10
2.2149999 -0.29300001 -0.382 7
2.763 -0.36199999 -0.384 10
2.017 -0.27399999 -0.382 7
2.437 -0.32800001 -0.37900001 8
3.1070001 -0.414 -0.377 12
1.834 -0.259 -0.382 9
2.214 -0.308 -0.382 7
2.7620001 -0.38100001 -0.384 10
2.0150001 -0.28799999 -0.38299999 8
2.4389999 -0.345 -0.38 7
3.1059999 -0.435 -0.37799999 12
1.832 -0.27200001 -0.382 9
2.207 -0.32300001 -0.38100001 6
2.7609999 -0.40000001 -0.38499999 10
2.0150001 -0.303 -0.38299999 7
2.4289999 -0.361 -0.37900001 6
3.1099999 -0.456 -0.37900001 13
1.827 -0.28400001 -0.38100001 9
2.21 -0.33899999 -0.382 7
2.757 -0.41800001 -0.38499999 9
2.01 -0.31600001 -0.38299999 7
2.4260001 -0.377 -0.37900001 7
3.115 -0.479 -0.38 13
1.821 -0.296 -0.38 9
2.204 -0.35299999 -0.382 8
2.7590001 -0.43700001 -0.38600001 10
2.007 -0.33000001 -0.38299999 7
2.427 -0.39399999 -0.38 7
3.122 -0.50099999 -0.382 15
1.822 -0.30899999 -0.38100001 9
2.1989999 -0.368 -0.382 8
2.7609999 -0.45699999 -0.38699999 11
2.003 -0.34299999 -0.38299999 7
2.4230001 -0.41 -0.38 8
3.115 -0.52100003 -0.38100001 14
1.8150001 -0.32100001 -0.38100001 8
2.191 -0.382 -0.38100001 7
2.7590001 -0.47600001 -0.38699999 11
2.0009999 -0.35699999 -0.38299999 7
2.425 -0.428 -0.38100001 7
3.1099999 -0.542 -0.382 14
1.819 -0.33500001 -0.382 9
2.1930001 -0.398 -0.382 6
2.753 -0.49399999 -0.38699999 10
2.0039999 -0.37200001 -0.384 8
2.428 -0.44600001 -0.382 7
3.1159999 -0.565 -0.38299999 12
1.809 -0.34599999 -0.38100001 9
2.1900001 -0.41299999 -0.382 7
2.7490001 -0.51200002 -0.38699999 10
2.0109999 -0.38800001 -0.38600001 8
2.4219999 -0.461 -0.382 7
3.109 -0.58499998 -0.38299999 14
1.806 -0.359 -0.38100001 10
2.1860001 -0.428 -0.382 6
2.7460001 -0.53100002 -0.38699999 10
2 -0.40000001 -0.38499999 8
2.421 -0.47799999 -0.38299999 7
3.119 -0.60799998 -0.38499999 14
1.802 -0.37099999 -0.38100001 9
2.187 -0.44400001 -0.38299999 7
2.737 -0.54799998 -0.38699999 10
1.994 -0.41299999 -0.38499999 8
2.4170001 -0.49399999 -0.38299999 7
3.1040001 -0.62699997 -0.384 14
1.7970001 -0.38299999 -0.38 9
2.1860001 -0.45899999 -0.384 7
2.7290001 -0.56599998 -0.38600001 10
1.9960001 -0.428 -0.38600001 8
2.421 -0.51200002 -0.384 7
3.1040001 -0.64899999 -0.38499999 15
1.793 -0.39500001 -0.38 9
2.187 -0.47499999 -0.38499999 7
2.727 -0.58499998 -0.38699999 10
1.9960001 -0.442 -0.38600001 8
2.4189999 -0.52899998 -0.38499999 7
3.0940001 -0.66799998 -0.384 14
1.791 -0.40799999 -0.38100001 8
2.177 -0.48800001 -0.384 8
2.7290001 -0.60399997 -0.38800001 11
1.977 -0.45199999 -0.384 7
2.418 -0.546 -0.38499999 7
3.0810001 -0.68699998 -0.38299999 13
1.79 -0.421 -0.38100001 7
2.178 -0.50400001 -0.38499999 8
2.7309999 -0.62400001 -0.389 11
1.972 -0.465 -0.384 7
2.4089999 -0.56099999 -0.38499999 7
3.0869999 -0.70999998 -0.38499999 14
1.785 -0.43200001 -0.38100001 8
2.171 -0.51800001 -0.38499999 8
2.721 -0.64099997 -0.389 11
1.97 -0.479 -0.384 6
2.3970001 -0.57599998 -0.384 7
3.082 -0.73000002 -0.38499999 13
1.783 -0.44499999 -0.382 7
2.174 -0.53399998 -0.38600001 8
2.717 -0.65899998 -0.389 11
1.969 -0.493 -0.38499999 6
2.4030001 -0.59399998 -0.38499999 9
3.076 -0.75099999 -0.38499999 13
1.78 -0.458 -0.382 8
2.174 -0.55000001 -0.38699999 7
2.7019999 -0.67500001 -0.38800001 11
1.966 -0.50700003 -0.38499999 7
2.3970001 -0.61000001 -0.38499999 8
3.0739999 -0.77200001 -0.38600001 15
1.775 -0.46900001 -0.382 8
2.171 -0.565 -0.38699999 8
2.7030001 -0.69400001 -0.38800001 10
1.961 -0.51999998 -0.38499999 7
2.392 -0.62599999 -0.38499999 8
3.069 -0.792 -0.38600001 15
1.774 -0.48199999 -0.382 8
2.175 -0.58200002 -0.389 7
2.7019999 -0.713 -0.389 11
1.961 -0.53399998 -0.38499999 7
2.3970001 -0.64499998 -0.38699999 7
3.0739999 -0.81599998 -0.38800001 16
1.7690001 -0.49399999 -0.382 11
2.171 -0.597 -0.389 7
2.6949999 -0.73100001 -0.389 12
1.946 -0.54500002 -0.384 7
2.3959999 -0.66100001 -0.38800001 7
3.073 -0.83700001 -0.38800001 15
1.768 -0.50700003 -0.38299999 10
2.1689999 -0.61199999 -0.389 8
2.6949999 -0.75 -0.38999999 12
1.962 -0.56400001 -0.38800001 8
2.3940001 -0.67799997 -0.38800001 8
3.0769999 -0.86000001 -0.38999999 17
1.7640001 -0.51899999 -0.38299999 9
2.1670001 -0.62699997 -0.38999999 7
2.691 -0.76800001 -0.38999999 11
1.938 -0.57099998 -0.384 7
2.3900001 -0.69499999 -0.389 8
3.0680001 -0.88 -0.389 17
1.76 -0.53100002 -0.38299999 10
2.1600001 -0.64099997 -0.389 9
2.691 -0.78799999 -0.391 12
1.934 -0.58399999 -0.384 6
2.3870001 -0.71100003 -0.389 8
3.069 -0.90200001 -0.38999999 16
1.761 -0.54500002 -0.384 8
2.1589999 -0.65700001 -0.38999999 8
2.6849999 -0.80599999 -0.391 12
1.938 -0.60000002 -0.38600001 6
2.382 -0.727 -0.389 9
3.0699999 -0.92400002 -0.39199999 19
1.763 -0.55800003 -0.38499999 7
2.1489999 -0.67000002 -0.389 7
2.6789999 -0.82300001 -0.391 12
1.934 -0.61299998 -0.38600001 6
2.3770001 -0.74299997 -0.389 9
3.069 -0.94599998 -0.39199999 17
1.766 -0.57300001 -0.38699999 8
2.1400001 -0.68300003 -0.38800001 7
2.6800001 -0.84299999 -0.39199999 11
1.931 -0.62699997 -0.38600001 6
2.375 -0.75999999 -0.38999999 9
3.0320001 -0.95700002 -0.38800001 40
1.763 -0.58499998 -0.38699999 8
2.132 -0.69599998 -0.38800001 7
2.6849999 -0.86400002 -0.39399999 13
1.931 -0.64099997 -0.38699999 6
2.3699999 -0.77600002 -0.38999999 8
3.0139999 -0.97299999 -0.38699999 40
1.758 -0.597 -0.38699999 8
2.1270001 -0.70999998 -0.38800001 7
2.6760001 -0.88099998 -0.39300001 15
1.9220001 -0.653 -0.38600001 7
2.3659999 -0.792 -0.38999999 10
2.892 -0.954 -0.37200001 58
1.749 -0.60699999 -0.38600001 8
2.122 -0.72399998 -0.38800001 7
2.6830001 -0.903 -0.39500001 15
1.919 -0.66600001 -0.38600001 8
2.368 -0.81 -0.391 10
2.891 -0.97500002 -0.37200001 62
1.751 -0.62099999 -0.38699999 9
2.122 -0.74000001 -0.389 7
2.678 -0.921 -0.39500001 14
1.919 -0.68099999 -0.38699999 9
2.3699999 -0.829 -0.39199999 11
2.9330001 -1.011 -0.37900001 56
1.7460001 -0.63300002 -0.38699999 10
2.119 -0.755 -0.389 7
2.684 -0.94300002 -0.39700001 17
1.919 -0.69499999 -0.38800001 9
2.3659999 -0.84500003 -0.39199999 10
2.8380001 -0.99900001 -0.36700001 65
1.748 -0.64700001 -0.38800001 9
2.118 -0.77100003 -0.38999999 8
2.688 -0.96399999 -0.398 13
1.926 -0.713 -0.38999999 9
2.3670001 -0.86299998 -0.39300001 10
2.7449999 -0.986 -0.35600001 48
1.743 -0.65899998 -0.38800001 8
2.1199999 -0.78799999 -0.391 11
2.6949999 -0.98699999 -0.40000001 19
1.911 -0.722 -0.38800001 8
2.365 -0.88 -0.39399999 10
2.618 -0.95999998 -0.34 51
1.738 -0.671 -0.38800001 8
2.115 -0.80199999 -0.391 8
2.6429999 -0.98699999 -0.39300001 27
1.9069999 -0.73500001 -0.38800001 8
2.3699999 -0.89899999 -0.39500001 12
2.6819999 -1.003 -0.34900001 42
1.737 -0.68300003 -0.38800001 8
2.112 -0.81699997 -0.391 9
2.6070001 -0.99299997 -0.38800001 30
1.913 -0.75199997 -0.38999999 8
2.3640001 -0.91500002 -0.39500001 11
2.7349999 -1.043 -0.35600001 45
1.7309999 -0.69499999 -0.38800001 9
2.0910001 -0.82499999 -0.38800001 9
2.5580001 -0.99400002 -0.382 39
1.913 -0.76700002 -0.391 9
2.3610001 -0.93199998 -0.39500001 10
2.6199999 -1.0190001 -0.34200001 44
1.734 -0.70899999 -0.38999999 10
2.073 -0.833 -0.38499999 10
2.5350001 -1.0039999 -0.37900001 33
1.915 -0.78200001 -0.39199999 10
2.3529999 -0.94599998 -0.39500001 11
2.6070001 -1.034 -0.34 64
1.729 -0.72100002 -0.389 10
2.099 -0.86000001 -0.391 8
2.5079999 -1.012 -0.37599999 39
1.924 -0.801 -0.39500001 10
2.362 -0.96799999 -0.39700001 12
2.609 -1.054 -0.34099999 39
1.72 -0.73100001 -0.38800001 11
2.1129999 -0.88200003 -0.39399999 8
2.4619999 -1.012 -0.36899999 37
1.9220001 -0.815 -0.39500001 11
2.355 -0.98299998 -0.396 19
2.654 -1.092 -0.347 61
1.722 -0.745 -0.389 11
2.112 -0.898 -0.39500001 9
2.4219999 -1.0140001 -0.36399999 29
1.906 -0.82300001 -0.39300001 10
2.191 -0.93199998 -0.36899999 19
2.5409999 -1.064 -0.333 48
1.723 -0.75999999 -0.38999999 12
2.1129999 -0.91500002 -0.396 9
2.299 -0.98000002 -0.34599999 35
1.913 -0.84100002 -0.39500001 10
2.21 -0.95700002 -0.373 25
2.5439999 -1.085 -0.33399999 48
1.725 -0.77399999 -0.39199999 14
1.994 -0.87900001 -0.37400001 17
2.2579999 -0.98000002 -0.34 27
1.919 -0.85900003 -0.39700001 11
2.1689999 -0.95499998 -0.36700001 23
2.4000001 -1.041 -0.315 38
1.725 -0.78799999 -0.39199999 13
2.0739999 -0.93000001 -0.389 22
2.1619999 -0.954 -0.32600001 23
1.913 -0.87099999 -0.396 14
2.096 -0.94 -0.35499999 25
2.4349999 -1.075 -0.31999999 45
1.722 -0.80000001 -0.39199999 12
2.066 -0.94300002 -0.38800001 26
2.2379999 -1.005 -0.33700001 28
1.89 -0.87599999 -0.39199999 16
1.9809999 -0.903 -0.336 21
2.3970001 -1.076 -0.315 39
1.72 -0.81300002 -0.39199999 12
2.027 -0.94099998 -0.382 29
2.194 -1.002 -0.331 22
1.883 -0.88700002 -0.391 22
1.97 -0.91399997 -0.33399999 20
2.302 -1.051 -0.303 38
1.716 -0.82499999 -0.39199999 12
2.0150001 -0.95099998 -0.38 29
2.187 -1.016 -0.33000001 28
1.878 -0.89999998 -0.38999999 30
1.976 -0.93199998 -0.33500001 24
2.1589999 -1.002 -0.28400001 29
1.717 -0.83899999 -0.39300001 15
1.957 -0.93800002 -0.36899999 28
2.1099999 -0.99599999 -0.31900001 31
1.893 -0.92199999 -0.39399999 27
1.9910001 -0.954 -0.338 25
2.0910001 -0.98699999 -0.27500001 29
1.712 -0.85000002 -0.39199999 13
1.893 -0.92299998 -0.35699999 24
2.086 -1.001 -0.315 28
1.872 -0.92699999 -0.38999999 30
1.994 -0.97100002 -0.33899999 21
2.1040001 -1.0089999 -0.27700001 25
1.712 -0.86400002 -0.39300001 13
1.9 -0.94099998 -0.359 23
2.0510001 -1 -0.31 33
1.7970001 -0.90399998 -0.375 37
1.999 -0.98900002 -0.34 25
2.2060001 -1.075 -0.28999999 31
1.712 -0.87800002 -0.39300001 13
1.8789999 -0.94499999 -0.35499999 23
2.0669999 -1.024 -0.31200001 26
1.786 -0.91299999 -0.373 36
1.951 -0.98000002 -0.33199999 36
2.2850001 -1.131 -0.30000001 37
1.72 -0.89600003 -0.39500001 16
1.855 -0.94800001 -0.35100001 22
1.982 -0.99699998 -0.29899999 21
1.8099999 -0.93900001 -0.37799999 24
1.899 -0.96899998 -0.32300001 31
2.0639999 -1.0369999 -0.271 33
1.724 -0.912 -0.39700001 15
1.865 -0.96799999 -0.35299999 26
1.983 -1.013 -0.30000001 22
1.758 -0.926 -0.368 39
1.932 -1.001 -0.329 26
2.4330001 -1.2410001 -0.31900001 28
1.727 -0.92799997 -0.398 22
1.818 -0.958 -0.34400001 24
2.053 -1.0650001 -0.31 25
1.779 -0.95099998 -0.37200001 31
1.8559999 -0.97600001 -0.315 25
2.125 -1.1 -0.278 31
1.749 -0.954 -0.403 43
1.851 -0.99000001 -0.34999999 28
2.105 -1.108 -0.317 27
1.7819999 -0.96700001 -0.373 34
1.873 -1 -0.31799999 24
2.2309999 -1.1720001 -0.292 32
1.747 -0.96700001 -0.403 46
1.827 -0.991 -0.34599999 27
1.9960001 -1.066 -0.301 23
1.812 -0.99800003 -0.37900001 33
1.9450001 -1.053 -0.33000001 22
2.1619999 -1.153 -0.28200001 53
1.732 -0.97299999 -0.40000001 54
1.832 -1.008 -0.347 27
2.04 -1.105 -0.30700001 21
1.765 -0.986 -0.36899999 30
1.937 -1.064 -0.329 24
2.8789999 -1.557 -0.375 60
1.733 -0.98699999 -0.40000001 49
1.8279999 -1.021 -0.34599999 28
1.975 -1.085 -0.29699999 20
1.767 -1.001 -0.37 36
1.8660001 -1.04 -0.317 19
1.959 -1.074 -0.255 25
1.734 -1.002 -0.40000001 47
1.869 -1.058 -0.35299999 32
1.984 -1.105 -0.29800001 21
1.766 -1.015 -0.36899999 30
1.8890001 -1.067 -0.31999999 24
2.2739999 -1.265 -0.29499999 27
1.716 -1.005 -0.396 49
1.865 -1.071 -0.352 25
2.1110001 -1.193 -0.31600001 24
1.7079999 -0.995 -0.35699999 25
1.852 -1.061 -0.31299999 18
3.1530001 -1.778 -0.40799999 75
1.722 -1.022 -0.39700001 53
1.821 -1.0599999 -0.34299999 30
1.908 -1.0930001 -0.285 26
1.709 -1.01 -0.35699999 30
1.9069999 -1.107 -0.322 31
1.972 -1.127 -0.25400001 52
1.7 -1.023 -0.39199999 50
1.722 -1.016 -0.324 34
1.883 -1.0930001 -0.28099999 18
1.701 -1.018 -0.35499999 34
1.823 -1.073 -0.30700001 26
2.6059999 -1.5089999 -0.33500001 39
1.54 -0.93900001 -0.35499999 32
1.738 -1.039 -0.32699999 26
1.994 -1.173 -0.29699999 21
1.648 -0.99900001 -0.34299999 27
1.876 -1.118 -0.315 22
1.944 -1.14 -0.249 35
1.52 -0.93900001 -0.34999999 38
1.7589999 -1.0650001 -0.33000001 38
1.905 -1.135 -0.28200001 27
1.704 -1.0470001 -0.35499999 25
1.816 -1.096 -0.30500001 21
2.675 -1.59 -0.34200001 41
1.461 -0.91399997 -0.336 36
1.734 -1.063 -0.32499999 39
1.91 -1.152 -0.28200001 21
1.501 -0.93400002 -0.31200001 28
1.766 -1.08 -0.296 22
2.411 -1.451 -0.30599999 37
1.53 -0.97000003 -0.352 33
1.74 -1.081 -0.32600001 33
1.678 -1.025 -0.24699999 18
1.733 -1.092 -0.36000001 36
1.76 -1.09 -0.294 13
1.872 -1.14 -0.237 39
1.479 -0.949 -0.33899999 37
1.76 -1.1059999 -0.32800001 28
2.306 -1.426 -0.338 29
1.753 -1.118 -0.36300001 34
1.9069999 -1.1950001 -0.317 18
1.869 -1.153 -0.235 21
1.527 -0.99199998 -0.34999999 36
1.836 -1.168 -0.34200001 33
1.772 -1.109 -0.259 34
1.71 -1.104 -0.35299999 38
1.948 -1.2359999 -0.32300001 25
3.3239999 -2.075 -0.41600001 44
1.473 -0.96799999 -0.33700001 40
1.865 -1.201 -0.34599999 35
2.1700001 -1.375 -0.31600001 26
1.7309999 -1.131 -0.35699999 45
1.743 -1.119 -0.28799999 20
2.6630001 -1.682 -0.331 35
1.635 -1.087 -0.373 47
1.855 -1.2079999 -0.34299999 26
2.572 -1.648 -0.37200001 38
1.763 -1.165 -0.36199999 36
2.2690001 -1.473 -0.373 47
3.24 -2.0710001 -0.40099999 37
1.633 -1.098 -0.37200001 53
1.865 -1.229 -0.34400001 24
1.668 -1.081 -0.23999999 24
1.661 -1.11 -0.34 31
1.984 -1.303 -0.32499999 34
2.832 -1.831 -0.34799999 31
1.697 -1.154 -0.38499999 50
1.671 -1.113 -0.30700001 28
2.3770001 -1.558 -0.34 23
1.709 -1.155 -0.34900001 40
2.395 -1.59 -0.38999999 52
2.9360001 -1.919 -0.35800001 27
1.719 -1.182 -0.389 46
1.952 -1.316 -0.35699999 29
2.5940001 -1.72 -0.36899999 43
1.725 -1.178 -0.35100001 39
2.4130001 -1.62 -0.391 65
1.7029999 -1.125 -0.206 18
1.4680001 -1.02 -0.331 37
2.076 -1.414 -0.37799999 47
2.325 -1.558 -0.329 26
1.749 -1.2079999 -0.354 33
2.457 -1.6670001 -0.396 51
2.721 -1.818 -0.32600001 27
1.449 -1.018 -0.32600001 32
1.976 -1.36 -0.35800001 26
2.3870001 -1.6160001 -0.33500001 28
1.829 -1.276 -0.36899999 45
2.227 -1.527 -0.35699999 48
3.358 -2.267 -0.39899999 44
1.5369999 -1.09 -0.34400001 24
1.9349999 -1.345 -0.34799999 36
2.5209999 -1.725 -0.35100001 37
1.854 -1.306 -0.37200001 32
2.188 -1.516 -0.34900001 31
3.4030001 -2.3210001 -0.40099999 43
1.55 -1.1109999 -0.34599999 27
1.937 -1.36 -0.347 38
2.563 -1.771 -0.354 36
1.781 -1.268 -0.35600001 53
2.1630001 -1.5140001 -0.34200001 30
2.7320001 -1.882 -0.31900001 31
1.474 -1.067 -0.32699999 29
1.8150001 -1.2869999 -0.32300001 49
2.7850001 -1.944 -0.382 44
1.774 -1.275 -0.35299999 26
2.346 -1.658 -0.368 48
2.576 -1.7920001 -0.29699999 35
1.516 -1.108 -0.33500001 29
1.862 -1.3329999 -0.329 58
2.7090001 -1.91 -0.368 32
1.778 -1.29 -0.352 53
2.415 -1.723 -0.377 53
3.4000001 -2.388 -0.38800001 37
1.58 -1.166 -0.34799999 34
1.955 -1.413 -0.34299999 30
2.2720001 -1.617 -0.30599999 38
1.826 -1.337 -0.359 41
2.299 -1.655 -0.35499999 46
3.5179999 -2.4949999 -0.39700001 45
1.436 -1.069 -0.31400001 48
1.975 -1.4400001 -0.345 30
2.4849999 -1.784 -0.33199999 24
1.819 -1.344 -0.35499999 45
2.02 -1.4680001 -0.31 35
3.563 -2.55 -0.39700001 39
1.7359999 -1.303 -0.377 54
2.0320001 -1.495 -0.352 31
2.72 -1.97 -0.359 59
1.798 -1.34 -0.34900001 31
1.987 -1.456 -0.30199999 37
2.957 -2.135 -0.32499999 28
1.715 -1.298 -0.37099999 41
