# .PCD v0.7 - Point Cloud Data file format
VERSION 0.7
FIELDS x y z intensity
SIZE 4 4 4 4
TYPE F F F F
COUNT 1 1 1 1
WIDTH 1678
HEIGHT 1
VIEWPOINT 0 0 0 1 0 0 0
POINTS 1678
DATA ascii
48.652 -0.31 3.5150001 41
45.810001 -0.29699999 4.7979999 40
44.532001 -0.26699999 6.1680002 37
47.153 -0.152 2.605 15
53.133999 -0.17 4.7069998 34
44.474998 -0.125 5.3860002 0
47.025002 -0.035999998 3.401 6
44.511002 -0.014 6.1680002 29
55.875999 0.13 3.0899999 11
129.569 1.024 7.1750002 21
129.502 1.739 7.1820002 40
59.976002 1.14 3.3299999 30
130.37199 2.8069999 9.4709997 48
60.148998 1.479 3.346 39
128.625 3.2 11.449 50
17.625999 0.45100001 2.142 0
127.246 3.454 9.257 46
17.469 0.49900001 2.4289999 65
60.080002 1.825 3.348 13
127.967 3.9389999 11.406 22
17.584 0.55500001 2.1389999 20
107.058 3.5309999 7.8000002 30
17.462 0.60399997 2.4300001 64
59.916 2.171 3.346 19
128.244 4.7059999 11.446 47
17.586 0.65899998 2.142 3
106.92 4.1550002 7.802 26
20.049999 0.81400001 2.7939999 54
59.359001 2.4960001 3.322 22
128.987 5.4899998 11.528 50
17.566 0.764 2.142 3
27.877001 1.247 2.0380001 1
19.999001 0.90899998 2.1129999 10
17.506001 0.815 2.4419999 5
59.465 2.849 3.335 25
20.549 0.99599999 1.839 6
17.631001 0.87199998 2.1530001 8
20.802999 1.053 1.523 6
20.135 1.034 2.1300001 56
20.166 1.061 2.816 31
34.948002 1.88 1.965 3
20.447001 1.113 1.8329999 51
17.580999 0.97500002 2.1489999 4
20.445 1.155 1.5 16
20.232 1.16 2.1440001 43
19.658001 1.154 2.7490001 43
27.729 1.654 1.563 4
20.516001 1.237 1.842 37
17.575001 1.08 2.152 5
20.063999 1.252 1.475 59
19.493 1.234 2.069 49
17.509001 1.133 2.4519999 51
27.268 1.786 1.541 56
20.379999 1.351 1.834 51
17.552 1.1849999 2.1530001 6
20.146999 1.376 1.484 17
19.332001 1.339 2.0550001 57
17.492001 1.238 2.4530001 23
27.353001 1.9529999 1.55 34
20.448999 1.477 1.844 51
19.076 1.402 2.3429999 39
20.17 1.497 1.49 56
20.146999 1.517 2.1459999 71
19.580999 1.505 2.7509999 46
27.396 2.1170001 1.557 34
20.426001 1.596 1.846 35
19.087 1.518 2.349 35
20.419001 1.637 1.512 20
20.690001 1.682 2.2079999 39
17.6 1.459 2.4760001 110
25.974001 2.161 1.4809999 42
20.537001 1.728 1.86 22
20.445999 1.76 1.518 65
20.205 1.763 2.1600001 50
19.320999 1.72 2.723 41
26.105 2.3269999 1.493 27
20.502001 1.848 1.8609999 40
18.74 1.717 2.3139999 39
18.957001 1.745 1.411 20
19.562 1.825 2.096 58
19.722 1.877 2.7850001 44
26.02 2.4719999 1.493 34
18.915001 1.818 1.721 37
18.573 1.8150001 2.299 54
20.455 2.0050001 1.527 63
19.4 1.928 2.0829999 51
19.622999 1.987 2.776 43
26.080999 2.6329999 1.502 16
19.058001 1.946 1.738 35
18.693001 1.941 2.3180001 58
19.274 2.0039999 1.443 32
18.985001 2.0009999 2.043 46
19.257 2.0680001 2.73 36
26.063 2.7869999 1.506 41
19.715 2.1329999 1.802 61
18.113001 1.99 2.2509999 57
19.247999 2.1170001 1.4450001 47
18.548 2.0669999 2.0009999 46
18.743 2.1289999 2.6619999 31
26.136 2.95 1.516 52
20.5 2.3399999 1.8789999 54
18.596001 2.1570001 2.316 61
20.455999 2.3729999 1.54 28
18.17 2.175 2.5869999 44
20.271999 2.4100001 1.1799999 19
20.049999 2.411 1.8430001 40
17.964001 2.194 2.243 53
20.396999 2.4879999 1.541 23
19.606001 2.424 2.1259999 54
18.061001 2.2739999 2.5769999 32
18.516001 2.312 1.082 3
18.667999 2.358 1.721 18
17.882 2.2939999 2.2379999 59
18.584999 2.3800001 1.409 11
18.965 2.46 2.062 39
18.212 2.4059999 2.6040001 32
18.399 2.408 1.08 39
18.652 2.4690001 1.725 19
17.690001 2.378 2.2190001 62
19.617001 2.631 1.492 46
18.496 2.513 2.016 58
17.98 2.487 2.5769999 43
18.209 2.493 1.073 55
18.653999 2.5829999 1.73 34
17.915001 2.52 2.2539999 74
19.181 2.724 2.0969999 44
11.083 1.602 1.592 12
18.200001 2.602 1.077 24
18.395 2.6600001 1.712 37
16.926001 2.4849999 2.135 55
18.094999 2.6470001 1.386 43
16.486 2.4430001 1.807 0
16.082001 2.425 2.3169999 45
18.336 2.733 1.09 45
18.368999 2.7679999 1.715 21
17.440001 2.6689999 2.2060001 35
18.110001 2.7590001 1.393 1
19.243 2.97 2.1159999 52
11.773 1.849 1.7 19
18.042 2.7980001 1.077 12
18.462999 2.8959999 1.729 45
17.18 2.7360001 2.1789999 55
18.218 2.8870001 1.406 35
16.437 2.638 1.813 0
11.315 1.848 1.6390001 42
19.811001 3.1930001 1.188 65
17.468 2.848 1.642 3
16.016001 2.6500001 2.0369999 28
18.082001 2.9760001 1.401 11
16.746 2.7920001 1.853 5
11.892 2.0179999 1.727 18
20.087 3.3599999 1.211 25
17.483 2.9579999 1.649 5
13.057 2.243 1.666 29
17.539 2.9949999 1.365 2
16.841999 2.914 1.87 7
12.102 2.1289999 1.763 22
19.485001 3.3789999 1.1799999 46
17.545 3.0780001 1.661 3
13.025 2.319 1.6670001 15
17.573999 3.1099999 1.373 8
20.195999 3.6199999 2.2490001 42
11.69 2.131 1.707 36
19.672001 3.5320001 1.197 51
17.535 3.1849999 1.666 3
13.015 2.3989999 1.671 0
17.556 3.2149999 1.377 5
20.080999 3.7249999 2.244 43
12.836 2.4230001 1.881 23
19.615 3.6440001 1.2 48
17.458 3.28 1.665 7
12.917 2.4630001 1.664 4
19.728001 3.7360001 1.554 65
20.256001 3.8859999 2.2720001 41
19.740999 3.789 1.2130001 46
17.461 3.3900001 1.6720001 7
10.94 2.1559999 1.414 7
12.152 2.3759999 0.96100003 0
19.863001 3.9349999 2.2349999 44
11.166 2.25 1.646 40
19.806 3.925 1.224 46
12.115 2.428 1.164 10
10.871 2.211 1.409 57
12.148 2.4519999 0.96499997 1
17.365 3.55 1.962 0
11.91 2.477 1.762 34
19.778999 4.0419998 1.229 60
12.084 2.4979999 1.166 32
13.136 2.756 1.709 37
12.21 2.5409999 0.97500002 27
13.08 2.7579999 1.483 0
11.746 2.5179999 1.743 30
19.802 4.171 1.237 19
12.013 2.5599999 1.164 33
12.95 2.8010001 1.691 43
12.238 2.6240001 0.98100001 39
12.18 2.645 1.386 19
12.521 2.766 1.864 25
12.336 2.6760001 0.77399999 1
12.04 2.642 1.171 1
12.906 2.872 1.6900001 40
12.348 2.724 0.99400002 27
12.199 2.7260001 1.393 32
12.786 2.9070001 1.91 30
12.37 2.7590001 0.77999997 29
12.198 2.7520001 1.191 18
12.842 2.941 1.688 38
12.243 2.779 0.99000001 20
12.228 2.8110001 1.402 24
11.324 2.6470001 1.697 14
12.371 2.8380001 0.78500003 19
11.997 2.7839999 1.176 7
12.665 2.983 1.671 26
12.339 2.8789999 1.003 29
12.038 2.845 1.385 3
11.239 2.7019999 1.6900001 31
17.518999 4.1300001 1.118 45
12.053 2.875 1.187 27
12.087 2.9260001 1.601 19
12.365 2.964 1.01 15
11.75 2.8529999 1.357 16
11.075 2.7360001 1.6720001 19
12.615 3.0539999 0.80900002 2
12.204 2.99 1.207 4
11.681 2.905 1.553 29
12.293 3.026 1.0089999 3
11.617 2.8970001 1.347 2
11.373 2.885 1.723 36
12.579 3.125 0.81099999 39
12.007 3.02 1.193 26
12.016 3.0669999 1.604 27
12.435 3.141 1.026 17
16.468 4.2150002 1.918 0
11.047 2.8759999 1.6799999 27
12.633 3.22 0.81999999 6
11.984 3.092 1.196 17
11.992 3.1400001 1.607 16
12.384 3.2090001 1.027 34
12.242 3.214 1.432 20
10.166 2.7149999 1.552 25
12.414 3.2449999 0.81 41
12.173 3.22 1.22 11
11.587 3.1110001 1.559 40
12.465 3.312 1.038 12
12.224 3.29 1.436 13
10.139 2.7750001 1.554 27
12.648 3.3889999 0.82999998 36
12.203 3.3080001 1.229 27
11.457 3.1530001 1.5470001 41
12.259 3.336 1.027 17
12.258 3.3800001 1.446 0
11.492 3.223 1.768 16
12.645 3.471 0.83499998 14
12.224 3.395 1.237 16
11.871 3.3469999 1.61 28
12.399 3.4560001 1.044 40
12.179 3.4400001 1.443 28
11.142 3.201 1.72 23
12.596 3.5380001 0.83700001 34
12.309 3.5009999 1.251 39
12.181 3.517 1.659 29
12.375 3.5309999 1.0470001 33
12.02 3.4760001 1.431 15
10.201 3.0009999 1.582 8
12.612 3.6259999 0.84299999 29
12.246 3.5650001 1.251 27
10.295 3.0420001 1.408 3
13.044 3.809 1.11 33
11.888 3.5179999 1.421 0
12.198 3.6719999 1.899 27
12.744 3.7490001 0.85699999 27
13.006 3.8729999 1.335 32
10.237 3.0940001 1.406 16
12.471 3.7249999 1.066 30
12.072 3.655 1.449 2
12.083 3.721 1.8890001 35
13.147 3.9549999 0.88999999 5
13.057 3.9760001 1.346 37
10.285 3.1789999 1.418 3
13.213 4.0359998 1.136 32
12.17 3.767 1.4680001 37
11.809 3.7179999 1.853 29
13.196 4.0580001 0.898 17
12.906 4.0180001 1.337 35
10.365 3.276 1.436 46
12.401 3.8710001 1.072 32
11.937 3.776 1.446 27
10.982 3.5350001 1.7309999 26
13.184 4.1440001 0.903 21
12.658 4.027 1.318 38
11.838 3.8239999 1.647 27
13.283 4.2360001 1.154 28
12.365 3.997 1.505 20
10.864 3.573 1.72 29
17.525999 5.625 1.2079999 17
12.768 4.1500001 1.336 37
11.707 3.8640001 1.636 35
12.704 4.1389999 1.11 21
12.154 4.013 1.4859999 45
10.792 3.6259999 1.715 31
13.498 4.4239998 0.93599999 0
12.704 4.217 1.336 29
11.547 3.891 1.6210001 26
12.836 4.27 1.127 34
12.203 4.1149998 1.499 30
10.765 3.694 1.7180001 31
13.539 4.5300002 0.94499999 4
12.623 4.277 1.334 30
11.688 4.0209999 1.648 19
13.006 4.4159999 1.149 29
11.944 4.1110001 1.474 34
10.719 3.7539999 1.719 29
13.294 4.54 0.93300003 0
12.61 4.3600001 1.339 16
11.51 4.0419998 1.63 15
12.538 4.3449998 1.113 30
11.574 4.0650001 1.436 32
10.678 3.816 1.719 40
13.393 4.6669998 0.94599998 17
12.344 4.355 1.318 12
11.599 4.1560001 1.65 27
13.189 4.6609998 1.178 30
11.726 4.2010002 1.461 24
10.647 3.8829999 1.722 29
13.354 4.7459998 0.949 2
12.123 4.3629999 1.301 33
11.615 4.2459998 1.66 32
12.967 4.6739998 1.164 31
11.553 4.2220001 1.447 23
10.632 3.9549999 1.727 30
12.905 4.6760001 0.92299998 1
12.325 4.5240002 1.329 36
11.476 4.2779999 1.648 21
12.998 4.777 1.173 18
11.61 4.3270001 1.461 12
10.794 4.0949998 1.761 26
15.397 5.6869998 1.108 2
11.754 4.401 1.274 39
10.91 4.1500001 1.574 8
12.294 4.6139998 1.1160001 5
11.733 4.4650002 1.484 29
11.096 4.2989998 1.8200001 35
15.298 5.7740002 1.109 0
11.778 4.5050001 1.284 21
10.442 4.0580001 1.5140001 23
15.535 5.9549999 1.42 0
11.639 4.5250001 1.48 25
10.347 4.0949998 1.705 23
19.549999 7.5359998 1.427 44
11.586 4.5279999 1.27 30
8.3769999 3.326 1.221 9
11.56 4.527 1.063 2
10.316 4.0949998 1.319 33
8.3809996 3.3870001 1.388 1
19.545 7.6919999 1.436 50
10.3 4.1100001 1.136 30
8.3620005 3.3900001 1.225 14
11.536 4.6110001 1.067 38
10.236 4.1500001 1.316 58
10.215 4.217 1.701 62
10.29 4.1339998 0.76099998 31
10.216 4.1609998 1.133 42
8.3719997 3.4649999 1.233 1
10.221 4.1700001 0.95099998 53
10.195 4.2189999 1.318 66
8.3120003 3.503 1.391 1
10.196 4.1799998 0.759 43
10.17 4.2280002 1.135 59
8.3100004 3.5109999 1.2309999 18
10.181 4.2389998 0.95300001 61
8.3299999 3.517 1.082 0
8.1689997 3.513 1.374 4
10.164 4.2509999 0.76200002 44
11.595 4.9190001 1.301 25
8.2889996 3.573 1.234 6
11.163 4.7420001 1.052 31
8.2930002 3.5739999 1.084 9
8.165 3.5840001 1.381 2
10.192 4.349 0.76899999 30
11 4.7600002 1.2410001 32
8.3260002 3.661 1.2460001 21
10.86 4.7049999 1.029 3
8.217 3.612 1.079 0
8.1709995 3.658 1.3890001 0
19.556999 8.5100002 1.4859999 46
10.679 4.7129998 1.212 31
8.3070002 3.727 1.25 24
10.699 4.7270002 1.02 29
10.578 4.7420001 1.398 28
8.2580004 3.7709999 1.411 16
19.548 8.6719999 1.495 43
10.484 4.717 1.196 24
8.1709995 3.7379999 1.2359999 1
10.638 4.7909999 1.02 26
8.224 3.7590001 1.092 1
8.2340002 3.8340001 1.414 18
19.554001 8.8439999 1.505 44
10.698 4.9070001 1.228 26
8.1829996 3.816 1.244 8
10.595 4.8639998 1.022 11
8.2049999 3.822 1.095 5
8.1879997 3.8870001 1.414 7
19.555 9.0129995 1.515 47
10.718 5.0120001 1.237 9
10.243 4.8699999 1.566 22
10.595 4.9569998 1.028 27
17.801001 8.4530001 2.391 22
10.23 4.9499998 1.776 22
19.552999 9.1820002 1.524 38
17.455999 8.316 2.026 33
10.297 4.9889998 1.582 2
10.578 5.0430002 1.0319999 5
17.451 8.4449997 2.355 33
17.281 8.5240002 3.016 30
19.544001 9.3509998 1.533 36
17.386 8.4399996 2.029 34
17.35 8.5640001 2.681 22
17.547001 8.5209999 1.723 32
17.558001 8.6560001 2.3829999 18
17.247 8.6669998 3.0250001 34
18.716 9.1210003 1.477 25
17.368 8.5889997 2.0380001 27
17.280001 8.6920004 2.684 25
17.308001 8.5620003 1.709 29
17.398001 8.7370005 2.3740001 18
8.6429996 4.4239998 1.524 3
19.087999 9.4729996 1.515 28
17.559 8.8430004 2.0710001 13
17.478001 8.9540005 2.7290001 30
17.290001 8.71 1.717 25
18.208 9.3129997 2.497 21
17.281 9.0129995 3.063 38
18.870001 9.5369997 1.506 29
17.226999 8.835 2.043 26
17.268 9.0089998 2.71 29
17.225 8.8339996 1.719 25
17.767 9.2530003 2.4489999 21
17.159 9.1140003 3.0569999 39
17.354 8.9280005 1.393 22
16.952999 8.8529997 2.0209999 37
17.402 9.2469997 2.7449999 21
16.882 8.816 1.694 33
17.240999 9.1429996 2.3889999 23
17.157 9.2790003 3.072 44
17.007999 8.9069996 1.373 28
16.743 8.8999996 2.006 34
17.118999 9.2609997 2.714 28
16.792999 8.9259996 1.694 33
16.834 9.0889997 2.3440001 36
17.002001 9.3640003 3.0599999 42
17.042999 9.085 1.383 22
16.577 8.9700003 1.997 38
16.732 9.2139997 2.6659999 43
16.612 8.9860001 1.684 27
16.736 9.1960001 2.342 28
16.686001 9.3549995 3.0179999 45
16.731001 9.0749998 1.365 20
16.584 9.1339998 2.007 32
16.565001 9.2869997 2.6530001 37
16.584 9.1309996 1.6900001 25
16.778999 9.3839998 2.3610001 26
16.656 9.5050001 3.0280001 44
16.502001 9.1070004 1.353 21
16.504999 9.25 2.007 21
16.358999 9.3330002 2.6329999 39
16.466 9.224 1.686 31
16.447001 9.3610001 2.3239999 29
8.9200001 5.1820002 1.63 2
16.164 9.0780001 1.332 36
16.309 9.3000002 1.994 35
16.358 9.4960003 2.645 42
16.375999 9.3319998 1.6849999 30
16.413 9.5050001 2.3310001 32
8.9040003 5.263 1.635 17
16.198 9.2530003 1.341 33
16.549999 9.6020002 2.0320001 19
16.367001 9.6700001 2.6600001 41
16.212 9.3999996 1.676 40
16.296 9.6020002 2.326 37
17.327999 10.423 3.197 35
16.159 9.3879995 1.3430001 29
16.193001 9.5559998 1.997 42
16.945 10.185 2.767 37
16.219999 9.5649996 1.684 32
16.266001 9.75 2.332 41
8.4829998 5.1919999 1.573 19
16.306 9.6370001 1.362 27
16.150999 9.6960001 2.0020001 43
16.957001 10.368 2.7820001 37
16.16 9.6920004 1.6849999 33
16.354 9.9709997 2.355 38
8.5629997 5.3319998 1.595 6
16.242001 9.7609997 1.362 23
16.365999 9.993 2.0369999 41
17.155001 10.671 2.8269999 39
16.084 9.8120003 1.684 49
17.040001 10.568 2.464 36
8.8380003 5.598 1.654 30
16.173 9.8830004 1.3609999 33
16.275999 10.106 2.0339999 48
8.316 5.2610002 1.377 7
16.106001 9.9899998 1.693 35
17.16 10.823 2.493 32
6.0050001 3.869 1.1289999 31
15.771 9.8000002 1.332 37
16.371 10.339 2.0539999 46
6.0149999 3.8699999 1 17
16.014 10.099 1.6900001 39
8.2690001 5.303 1.206 0
5.9390001 3.892 1.122 22
15.734 9.9399996 1.3329999 37
16.986 10.906 2.1400001 39
5.9299998 3.8800001 0.99000001 34
15.901 10.197 1.684 38
5.9699998 3.8940001 0.87400001 26
5.875 3.915 1.115 35
15.89 10.204 1.351 33
6.0120001 3.924 0.75999999 16
5.8769999 3.9100001 0.98500001 63
16.431999 10.711 1.7460001 26
5.9000001 3.9119999 0.86699998 27
5.842 3.96 1.114 36
15.894 10.376 1.355 31
5.9099998 3.9230001 0.75 52
5.8520002 3.9590001 0.98500001 21
5.927 3.927 0.63200003 37
5.8600001 3.95 0.86500001 44
5.8249998 4.0149999 1.115 40
5.9260001 3.9319999 0.50599998 32
5.8569999 3.951 0.745 50
5.8309999 4.0120001 0.986 26
5.875 3.957 0.62800002 50
5.8280001 3.9949999 0.86299998 40
5.914 4.145 1.137 11
5.8730001 3.96 0.50300002 71
5.822 3.9920001 0.74299997 27
5.8390002 4.0830002 0.991 26
5.8340001 3.994 0.625 32
5.8070002 4.0450001 0.86299998 34
19.740999 14.07 3.813 37
5.8340001 3.9990001 0.5 70
5.783 4.0310001 0.741 42
16.466 11.706 2.806 1
5.8119998 4.0440001 0.62400001 28
5.8720002 4.158 0.87599999 25
8.2740002 5.9949999 1.604 13
5.8049998 4.0430002 0.49900001 40
5.7989998 4.1079998 0.745 22
7.283 5.2639999 1.245 11
5.8169999 4.1139998 0.62599999 26
7.4219999 5.3429999 1.1109999 3
8.1660004 6.0149999 1.589 28
5.7989998 4.1040001 0.49900001 44
16.785 12.084 2.1630001 39
7.2540002 5.329 1.245 16
5.8590002 4.21 0.63200003 5
7.473 5.467 1.122 0
8.2130003 6.151 1.605 4
5.836 4.198 0.50199997 17
16.617001 12.159 2.1459999 38
7.1919999 5.3699999 1.238 28
16.117001 11.768 1.743 32
16.447001 12.228 2.4760001 5
7.5479999 5.7459998 1.48 28
16.413 11.994 1.415 21
16.158001 12.014 2.092 34
7.3569999 5.5840001 1.271 8
16.378 12.153 1.773 28
7.3280001 5.5380001 1.1059999 5
8.1610003 6.3150001 1.607 16
16.038 11.907 1.383 26
7.3270001 5.5359998 0.94999999 0
8.2770004 6.3850002 1.434 1
16.506001 12.444 1.789 27
7.2779999 5.5890002 1.101 11
8.7379999 6.8740001 1.726 37
16.351999 12.337 1.409 22
7.3699999 5.6589999 0.958 33
7.217 5.658 1.2539999 3
7.3249998 5.6100001 0.79400003 31
7.335 5.723 1.112 13
7.9419999 6.3499999 1.574 33
16.452 12.609 1.4170001 28
7.3429999 5.7280002 0.95499998 25
7.4889998 5.9679999 1.3049999 16
7.2729998 5.6599998 0.78899997 27
7.9450002 6.3010001 1.2079999 28
8.9040003 7.2360001 1.771 19
16.313 12.7 1.403 32
7.2610002 5.7550001 0.94599998 18
7.3909998 5.9850001 1.291 23
7.1999998 5.6929998 0.78100002 25
8.0310001 6.4710002 1.223 30
7.9109998 6.5349998 1.5779999 24
16.177 12.796 1.3890001 30
7.2389998 5.8299999 0.94400001 39
7.9250002 6.5209999 1.388 12
16.097 12.929 1.747 14
7.9920001 6.5430002 1.219 28
7.9060001 6.6370001 1.581 23
15.804 12.698 1.354 7
7.1960001 5.888 0.93900001 13
7.4169998 6.2030001 1.302 34
19.629 16.018999 2.1289999 30
7.9380002 6.6030002 1.212 25
7.2940001 6.223 1.4630001 3
15.673 12.791 1.339 8
7.8709998 6.5419998 1.027 6
7.888 6.7030001 1.387 29
19.625 16.268 2.1259999 29
7.9099998 6.6859999 1.209 13
7.8839998 6.8379998 1.586 9
15.527 12.874 1.323 2
19.648001 16.594 2.5650001 29
7.9039998 6.8249998 1.392 27
19.612 16.514 2.122 30
19.686001 16.903999 3.013 30
7.6820002 6.7709999 1.549 16
18.056 15.206 1.5319999 22
19.65 16.858 2.5650001 28
7.7550001 6.8049998 1.368 13
19.622 16.785999 2.119 28
19.629 17.128 3.006 25
3.5810001 3.207 0.72299999 9
18.059 15.447 1.526 19
19.650999 17.125999 2.563 28
7.6199999 6.7940001 1.346 14
19.629999 17.056999 2.115 29
19.681 17.445999 3.0150001 28
19.771999 18.000999 4.0029998 21
18.073999 15.705 1.5190001 16
19.594 17.35 2.553 29
7.5320001 6.823 1.332 2
19.486 17.198 2.0929999 31
7.6009998 6.8449998 1.164 0
19.787001 18.306 4.013 24
18.058001 15.937 1.5089999 15
19.66 17.683001 2.5580001 29
19.747 18.179001 3.4960001 25
19.618999 17.591999 2.1010001 31
19.687 18.014 3.0139999 28
3.51 3.3 0.713 6
18.066999 16.194 1.5 15
19.669001 17.969999 2.5539999 25
19.746 18.469 3.497 19
19.634001 17.881001 2.0940001 27
19.684 18.297001 3.0120001 26
19.782 18.905001 4.0240002 19
18.083 16.466 1.49 15
19.667 18.256001 2.5480001 27
19.74 18.76 3.497 18
19.620001 18.148001 2.0829999 27
19.694 18.597 3.01 23
19.761999 19.191999 4.0240002 18
18.101 16.74 1.48 13
19.66 18.537001 2.54 23
19.726999 19.052 3.494 18
19.615 18.433001 2.0710001 24
19.702999 18.903999 3.007 22
7.5310001 7.4320002 1.535 0
18.125 17.023001 1.4680001 12
19.653 18.822001 2.53 20
19.736 19.365999 3.494 19
19.608 18.715 2.059 22
19.702999 19.204 3.0009999 22
7.421 7.4450002 1.513 18
18.188 17.353001 1.4579999 13
19.634001 19.104 2.5179999 22
7.4660001 7.4429998 1.3200001 19
19.615999 19.016001 2.0469999 23
7.441 7.368 1.131 0
7.3080001 7.4489999 1.49 19
7.6630001 7.4250002 0.60799998 1
19.655001 19.426001 2.51 19
7.3470001 7.4429998 1.298 21
19.624001 19.326 2.0320001 21
7.3909998 7.4349999 1.12 22
7.1799998 7.4390001 1.464 17
7.5599999 7.4400001 0.59200001 13
7.401 7.4299998 0.94 23
7.2350001 7.447 1.276 18
7.4359999 7.4380002 0.764 22
7.2779999 7.4380002 1.099 21
6.9629998 7.3319998 1.419 20
7.4320002 7.4299998 0.574 19
7.29 7.4359999 0.921 23
6.9899998 7.3119998 1.23 19
7.3210001 7.4380002 0.745 23
7.1659999 7.4390001 1.0779999 20
6.9619999 7.4499998 1.418 16
7.3179998 7.4299998 0.55699998 21
7.1789999 7.4369998 0.90100002 22
6.9510002 7.3870001 1.221 19
7.2140002 7.4450002 0.727 22
6.941 7.322 1.04 38
6.8439999 7.4429998 1.392 16
7.2049999 7.4299998 0.54000002 20
6.948 7.3109999 0.866 32
6.8969998 7.448 1.2079999 17
7.0609999 7.401 0.704 19
6.9390001 7.4359999 1.034 21
6.737 7.4460001 1.369 16
7.085 7.4219999 0.52200001 19
6.9169998 7.395 0.85600001 20
6.777 7.4359999 1.183 16
6.8969998 7.3429999 0.68000001 37
6.8280001 7.4320002 1.012 18
6.6929998 7.5180001 1.358 11
6.881 7.322 0.49700001 40
6.8509998 7.4400001 0.83999997 19
6.6680002 7.434 1.16 11
6.8800001 7.441 0.66900003 22
6.7270002 7.4400001 0.991 20
6.6370001 7.579 1.3430001 9
6.875 7.4289999 0.48699999 20
6.737 7.4320002 0.81900001 19
6.664 7.5500002 1.154 11
6.7709999 7.4390001 0.64999998 20
6.6609998 7.4840002 0.97500002 5
6.5349998 7.5830002 1.319 5
6.763 7.4239998 0.46799999 19
6.6430001 7.4439998 0.79900002 10
6.6339998 7.638 1.143 10
6.6560001 7.427 0.62900001 21
6.5900002 7.5209999 0.95700002 6
6.414 7.5640001 1.291 5
6.664 7.4310002 0.44999999 20
6.632 7.5500002 0.78899997 15
6.5609999 7.6739998 1.124 3
6.6230001 7.5089998 0.61500001 14
6.5279999 7.5700002 0.94 7
6.3559999 7.619 1.274 6
6.598 7.473 0.433 6
6.6020002 7.6329999 0.77600002 11
6.4759998 7.6960001 1.103 5
6.6079998 7.6079998 0.60299999 10
6.5029998 7.6609998 0.92799997 6
6.2290001 7.5879998 1.244 4
6.5089998 7.4889998 0.41499999 7
6.5289998 7.6690001 0.75700003 4
6.3340001 7.6490002 1.071 4
6.388 7.4699998 0.57200003 6
6.4400001 7.7059999 0.91000003 6
6.1360002 7.5960002 1.219 4
6.4809999 7.5739999 0.40000001 7
6.4429998 7.6869998 0.736 6
6.1329999 7.5240002 1.03 4
6.3909998 7.5929999 0.56 7
6.4380002 7.8270001 0.89999998 5
6.099 7.6739998 1.205 1
6.4679999 7.6760001 0.38499999 7
6.2680001 7.5960002 0.70499998 6
6.0689998 7.5640001 1.01 3
6.3639998 7.6799998 0.54400003 6
6.1659999 7.6149998 0.852 7
5.855 7.4860001 1.15 0
6.3639998 7.6739998 0.36399999 5
6.0869999 7.494 0.67299998 4
5.9580002 7.5469999 0.98299998 0
6.3319998 7.7610002 0.528 6
5.994 7.5190001 0.81699997 4
5.737 7.4549999 1.119 1
6.2940001 7.7090001 0.345 6
6.0679998 7.5879998 0.65799999 3
7.0879998 9.1199999 1.158 5
6.1209998 7.6209998 0.49599999 7
5.8340001 7.4349999 0.78399998 1
5.6669998 7.4840002 1.097 0
6.0939999 7.5799999 0.31799999 7
5.8800001 7.467 0.625 1
5.7820001 7.5580001 0.93400002 0
5.9990001 7.585 0.472 3
5.8140001 7.5250001 0.76999998 0
5.671 7.6090002 1.089 5
5.914 7.474 0.29300001 6
5.7880001 7.467 0.602 0
5.6409998 7.4920001 0.89999998 2
5.8109999 7.4619999 0.442 2
7.0599999 9.2810001 0.91900003 6
5.5939999 7.6269999 1.0650001 0
6.8270001 8.7620001 0.31799999 8
5.677 7.4369998 0.57599998 3
5.645 7.6139998 0.889 5
5.73 7.474 0.41999999 0
5.6550002 7.5510001 0.72299999 5
5.4089999 7.494 1.0190001 1
5.7399998 7.4819999 0.25 0
5.6399999 7.5019999 0.55699998 1
7.086 9.7069998 1.1 5
7.0180001 9.2969999 0.49399999 7
5.5650001 7.5450001 0.69700003 5
5.3639998 7.5489998 1 0
7.0050001 9.276 0.28299999 5
5.6220002 7.5970001 0.54000002 10
5.434 7.5619998 0.83099997 2
5.6350002 7.5799999 0.37900001 6
5.402 7.4359999 0.662 1
7.086 10.129 1.3049999 1
5.5780001 7.5 0.207 5
5.5700002 7.6399999 0.51800001 0
5.2729998 7.4510002 0.792 0
5.5120001 7.5300002 0.35299999 5
5.4239998 7.5809999 0.64899999 2
5.1830001 7.5250001 0.94199997 1
5.5619998 7.5960002 0.186 7
5.3639998 7.4699998 0.48199999 2
7.0799999 10.155 1.044 1
5.402 7.4920001 0.32800001 0
5.2540002 7.4549999 0.61299998 2
5.1760001 7.631 0.92699999 4
5.4749999 7.5939999 0.163 6
5.3249998 7.5289998 0.461 0
5.197 7.5679998 0.75099999 1
5.421 7.6329999 0.30899999 3
5.2319999 7.5339999 0.59299999 0
5.152 7.7090001 0.90799999 3
5.395 7.5970001 0.139 7
7.0630002 10.135 0.58600003 2
5.1329999 7.586 0.72600001 4
5.2080002 7.4439998 0.27700001 2
5.2340002 7.6490002 0.57599998 1
5.0040002 7.6020002 0.86699998 2
5.2859998 7.5570002 0.115 7
5.1269999 7.4650002 0.40599999 2
5.0359998 7.5510001 0.69499999 2
5.1500001 7.4710002 0.25400001 0
5.1090002 7.5749998 0.54299998 4
5.0110002 7.724 0.852 5
5.2020001 7.5500002 0.090999998 6
5.1880002 7.664 0.391 3
4.967 7.5549998 0.667 3
5.197 7.6490002 0.234 2
5.1079998 7.6799998 0.52399999 4
4.9559999 7.7459998 0.82499999 5
5.0479999 7.4359999 0.064999998 5
5.1550002 7.724 0.36700001 4
5.0040002 7.7179999 0.653 10
5.0739999 7.5780001 0.206 5
4.9640002 7.5679998 0.48800001 4
4.8559999 7.697 0.79000002 4
4.9699998 7.4289999 0.041000001 13
5.0760002 7.711 0.33899999 3
4.9460001 7.7309999 0.62599999 5
5.039 7.632 0.182 6
4.9889998 7.71 0.47 7
4.6350002 7.4439998 0.73500001 4
4.9060001 7.441 0.016000001 11
4.973 7.6589999 0.30899999 4
4.8800001 7.73 0.59600002 5
4.9050002 7.5320001 0.153 4
4.9260001 7.711 0.442 6
4.5760002 7.4429998 0.70700002 3
4.822 7.4169998 -0.0080000004 5
4.947 7.7189999 0.28400001 6
4.6350002 7.434 0.54500002 4
4.8600001 7.5650001 0.127 3
4.869 7.7189999 0.41299999 5
4.527 7.454 0.67799997 3
4.7620001 7.428 -0.033 5
4.908 7.7550001 0.25799999 5
4.5799999 7.4330001 0.51700002 3
4.7220001 7.448 0.098999999 4
4.6339998 7.4330001 0.37 3
4.4710002 7.4460001 0.648 2
4.691 7.4159999 -0.059 5
4.7360001 7.5760002 0.22400001 2
4.5250001 7.428 0.48800001 3
4.6550002 7.434 0.071000002 5
4.5770001 7.4260001 0.34200001 4
4.428 7.4499998 0.61900002 2
4.6399999 7.4320002 -0.086000003 4
4.592 7.4320002 0.192 3
4.4770002 7.4260001 0.45899999 3
4.6020002 7.4400001 0.045000002 4
4.5250001 7.4200001 0.31299999 3
4.3800001 7.441 0.58899999 2
4.5890002 7.4439998 -0.113 3
4.5409999 7.4289999 0.164 3
4.4450002 7.441 0.43099999 2
4.5500002 7.4390001 0.017999999 3
4.4860001 7.428 0.285 3
4.335 7.428 0.55800003 1
4.5300002 7.4359999 -0.139 3
4.5 7.4380002 0.13600001 3
4.3969998 7.4260001 0.40099999 2
4.5029998 7.441 -0.0099999998 3
4.4520001 7.4380002 0.257 3
4.3070002 7.434 0.52899998 1
4.4790001 7.4369998 -0.16599999 3
4.4569998 7.434 0.108 2
4.3639998 7.4260001 0.37200001 2
4.4559999 7.4369998 -0.037 3
4.4169998 7.4390001 0.228 2
4.283 7.4369998 0.49900001 1
4.414 7.408 -0.19400001 0
4.4169998 7.428 0.079000004 2
4.3340001 7.421 0.34200001 2
4.4159999 7.4359999 -0.064999998 2
4.381 7.428 0.199 2
4.2680001 7.4460001 0.47 1
4.3850002 7.4299998 -0.222 2
4.3909998 7.4400001 0.050000001 2
4.3130002 7.4229999 0.31299999 2
4.375 7.4260001 -0.093999997 1
4.3579998 7.4310002 0.17 2
4.2459998 7.4330001 0.44 1
4.3439999 7.4239998 -0.25 2
2.7090001 4.618 0.013 0
4.2989998 7.4260001 0.28299999 2
4.3449998 7.427 -0.122 2
4.3400002 7.4320002 0.14 2
4.2340002 7.4260001 0.40900001 1
4.3400002 7.434 -0.0070000002 2
4.2930002 7.434 0.25400001 2
4.3189998 7.4229999 -0.15099999 0
4.3189998 7.4190001 0.111 2
4.2199998 7.4029999 0.37900001 1
2.506 4.3439999 -0.17900001 0
4.316 7.4180002 -0.035999998 2
4.2859998 7.4289999 0.22400001 2
2.6630001 4.599 -0.112 0
4.3119998 7.4190001 0.081 1
4.2470002 7.441 0.35100001 1
4.303 7.4130001 -0.064999998 1
4.2870002 7.427 0.19499999 2
2.6559999 4.599 -0.13 0
4.3070002 7.4130001 0.052000001 1
4.2470002 7.4219999 0.32100001 1
2.655 4.5770001 -0.057999998 0
4.2930002 7.4239998 0.16599999 2
4.3260002 7.4369998 0.023 2
4.2659998 7.4250002 0.292 2
2.7049999 4.6609998 -0.078000002 0
4.3150001 7.4349999 0.13600001 2
2.51 4.3540001 -0.15800001 0
4.3270001 7.421 -0.0060000001 2
4.3039999 7.4489999 0.264 2
2.7079999 4.6570001 -0.096000001 0
4.323 7.415 0.107 2
2.5280001 4.381 -0.176 0
4.3330002 7.401 -0.035 1
4.3379998 7.4580002 0.235 2
4.3379998 7.4349999 -0.183 1
4.3530002 7.4239998 0.078000002 2
2.5250001 4.3649998 -0.192 0
4.3590002 7.408 -0.064000003 1
4.3660002 7.447 0.206 3
4.3530002 7.4260001 -0.213 3
4.3940001 7.4400001 0.050000001 3
2.5009999 4.3039999 -0.207 0
4.3940001 7.4219999 -0.093000002 2
4.3959999 7.4320002 0.178 3
4.3759999 7.4219999 -0.241 3
4.4159999 7.4159999 0.021 3
4.3260002 7.4070001 -0.38600001 0
4.434 7.4330001 -0.122 2
4.4419999 7.4349999 0.15000001 4
4.2729998 7.415 -0.54299998 0
4.4060001 7.4200001 -0.27000001 3
4.4619999 7.4260001 -0.0060000001 4
4.3660002 7.4260001 -0.41600001 3
4.4580002 7.4099998 -0.15000001 4
4.4860001 7.4299998 0.122 4
2.4519999 4.2270002 -0.32600001 0
4.448 7.428 -0.30000001 3
4.5100002 7.4299998 -0.034000002 4
4.4029999 7.4299998 -0.44600001 3
4.5029998 7.4159999 -0.178 5
4.5469999 7.4450002 0.094999999 4
4.342 7.4289999 -0.60299999 1
2.74 4.5349998 -0.2 0
4.5580001 7.428 -0.061999999 11
2.3340001 3.904 -0.249 4
4.546 7.4099998 -0.207 5
4.5960002 7.4330001 0.068000004 11
2.559 4.3410001 -0.37 0
2.375 3.892 -0.18700001 5
4.6059999 7.421 -0.089000002 12
2.362 3.9119999 -0.26499999 6
4.5970001 7.4109998 -0.234 10
4.658 7.4400001 0.041000001 12
2.4990001 4.198 -0.37400001 0
2.3570001 3.8210001 -0.198 6
4.6609998 7.4190001 -0.116 13
2.3710001 3.8870001 -0.27900001 7
4.6550002 7.4180002 -0.26199999 11
4.7150002 7.4330001 0.015 12
4.4390001 7.3759999 -0.68699998 1
2.3570001 3.777 -0.20999999 4
2.4159999 3.7980001 -0.072999999 4
2.431 3.9389999 -0.29800001 0
4.7129998 7.4190001 -0.28999999 11
4.7789998 7.4310002 -0.0099999998 13
2.3640001 3.8840001 -0.377 4
2.4560001 3.888 -0.23100001 6
2.4300001 3.77 -0.086000003 15
2.359 3.777 -0.30000001 0
2.4719999 3.8429999 -0.164 3
4.8410001 7.4229999 -0.035999998 13
2.3510001 3.8150001 -0.38499999 6
2.4690001 3.8599999 -0.244 9
4.855 7.4289999 -0.19599999 14
2.4760001 3.914 -0.32600001 3
2.457 3.77 -0.17399999 3
4.9229999 7.4429998 -0.061000001 14
2.451 3.928 -0.412 7
2.4579999 3.7920001 -0.25299999 7
4.9219999 7.428 -0.222 15
2.55 3.9779999 -0.34599999 9
2.4860001 3.7609999 -0.18700001 0
4.9899998 7.4359999 -0.086000003 16
2.346 3.7079999 -0.403 8
2.4389999 3.7119999 -0.26100001 12
4.9980001 7.4380002 -0.24699999 16
2.4000001 3.6930001 -0.33500001 10
2.552 3.8080001 -0.20299999 7
5.059 7.428 -0.11 15
2.381 3.7119999 -0.41800001 9
2.45 3.6760001 -0.27200001 11
5.0739999 7.441 -0.273 16
2.454 3.724 -0.352 11
2.5320001 3.7249999 -0.212 3
5.138 7.4330001 -0.134 16
2.5480001 3.9170001 -0.456 0
2.4809999 3.6700001 -0.285 7
2.938 4.2459998 -0.17 0
2.6340001 3.941 -0.38699999 6
5.119 7.4219999 -0.44800001 17
2.9389999 4.1880002 -0.089000002 0
2.414 3.6559999 -0.44 10
2.5009999 3.648 -0.296 7
2.9519999 4.204 -0.182 14
2.53 3.73 -0.37900001 6
5.1919999 7.4200001 -0.47299999 18
5.29 7.4250002 -0.182 19
2.428 3.6240001 -0.449 10
2.608 3.7479999 -0.31799999 10
5.296 7.4289999 -0.347 18
2.562 3.721 -0.39199999 9
3.0780001 4.3340001 -0.29100001 7
5.3709998 7.4250002 -0.205 20
2.734 4.0180001 -0.51300001 10
2.9100001 4.119 -0.36300001 7
5.3730001 7.4250002 -0.37 21
2.6570001 3.802 -0.414 11
5.3499999 7.4200001 -0.523 21
5.4580002 7.428 -0.228 22
2.5469999 3.6860001 -0.484 11
3.1389999 4.3769999 -0.40200001 0
5.4549999 7.4239998 -0.39399999 21
2.7839999 3.9230001 -0.44100001 8
5.428 7.415 -0.54699999 22
5.5419998 7.427 -0.25099999 21
2.569 3.661 -0.49399999 10
5.3959999 7.4109998 -0.70499998 21
5.5380001 7.4219999 -0.417 21
3.1440001 4.3629999 -0.50700003 5
5.5139999 7.4190001 -0.57200003 22
5.625 7.4239998 -0.273 20
2.7820001 3.9030001 -0.54100001 10
5.4829998 7.4159999 -0.73000002 20
5.6209998 7.4190001 -0.44 18
3.098 4.2319999 -0.50599998 1
5.598 7.4169998 -0.59600002 22
5.7140002 7.4239998 -0.29499999 23
2.8800001 3.9760001 -0.56599998 13
5.572 7.4200001 -0.75599998 22
5.7119999 7.4239998 -0.463 22
5.5170002 7.421 -0.91399997 21
5.6830001 7.414 -0.61900002 22
5.8070002 7.428 -0.31600001 23
3.3410001 4.54 -0.66299999 15
5.6550002 7.415 -0.77999997 23
3.2149999 4.1139998 -0.26899999 0
3.027 4.0079999 -0.50700003 9
5.7709999 7.414 -0.64300001 23
5.8969998 7.427 -0.338 23
3.3269999 4.4499998 -0.66500002 13
3.056 3.9460001 -0.428 14
5.8940001 7.4260001 -0.50800002 25
2.7490001 3.5829999 -0.465 0
3.2190001 4.072 -0.366 12
5.987 7.4229999 -0.359 25
2.934 3.8610001 -0.59100002 12
3.1919999 4.0560002 -0.45300001 14
5.9790001 7.4169998 -0.52999997 27
3.0840001 3.957 -0.52700001 4
5.9530001 7.414 -0.68900001 24
6.0780001 7.4190001 -0.37900001 26
2.7219999 3.526 -0.55199999 21
5.9320002 7.4219999 -0.85299999 26
6.0830002 7.428 -0.55199999 26
4.2309999 5.342 -0.73000002 0
3.244 3.977 -0.382 0
6.1739998 7.4200001 -0.39899999 26
2.6960001 3.4360001 -0.55000001 10
6.0250001 7.4200001 -0.87699997 27
6.1700001 7.4180002 -0.57300001 26
2.7049999 3.362 -0.47099999 11
6.1459999 7.4169998 -0.73500001 23
6.2750001 7.4229999 -0.41999999 27
2.934 3.6789999 -0.602 12
6.1199999 7.4190001 -0.90100002 25
6.2680001 7.4190001 -0.59399998 27
4.6529999 5.691 -0.81599998 11
6.2399998 7.415 -0.75599998 24
6.3800001 7.4299998 -0.44 26
3.0179999 3.724 -0.62199998 14
6.2129998 7.414 -0.92299998 24
6.3709998 7.4229999 -0.616 26
3.174 3.8210001 -0.56 5
3.665 4.2870002 -0.44999999 11
3.6670001 4.2049999 -0.25999999 10
2.9779999 3.6159999 -0.616 18
3.3540001 3.9400001 -0.50199997 5
6.4660001 7.4180002 -0.63599998 27
3.701 4.3850002 -0.65700001 15
6.4390001 7.414 -0.80000001 24
6.5799999 7.427 -0.479 31
2.8759999 3.4349999 -0.597 17
3.523 4.0739999 -0.53200001 0
6.566 7.4159999 -0.65600002 30
3.277 3.822 -0.58499998 12
3.5739999 4.052 -0.449 6
6.6820002 7.4260001 -0.498 32
3.0580001 3.5940001 -0.63700002 21
3.6370001 4.1399999 -0.55299997 0
6.6690001 7.414 -0.67699999 28
3.392 3.892 -0.60799998 15
6.6430001 7.414 -0.84399998 29
3.7750001 4.131 -0.287 0
3.0139999 3.4849999 -0.63 22
3.678 4.1209998 -0.56300002 0
3.694 4.0430002 -0.38 1
3.714 4.1939998 -0.66900003 19
6.75 7.4159999 -0.86500001 29
3.812 4.1059999 -0.296 10
3.0409999 3.46 -0.63700002 23
3.7539999 4.1399999 -0.579 0
3.796 4.0910001 -0.39500001 13
3.596 3.997 -0.64999998 15
3.766 4.073 -0.486 0
6.9720001 7.3930001 -0.551 25
3.0280001 3.3900001 -0.63499999 12
3.7379999 4.0570002 -0.579 3
6.9889998 7.414 -0.736 28
4.1420002 4.5300002 -0.75099999 24
6.8860002 7.3309999 -0.89700001 21
7.1069999 7.4200001 -0.57099998 32
2.944 3.243 -0.61799997 10
3.8150001 4.0760002 -0.59399998 0
7.0939999 7.4089999 -0.755 32
3.723 4.007 -0.67699999 23
4.125 4.3239999 -0.54000002 0
7.2199998 7.4200001 -0.58899999 32
2.9530001 3.2 -0.62099999 13
4.7909999 5.0380001 -0.74900001 1
7.21 7.414 -0.77399999 32
3.431 3.635 -0.625 23
4.158 4.2909999 -0.54799998 0
7.335 7.4219999 -0.60699999 34
2.9860001 3.184 -0.62800002 15
4.3429999 4.4949999 -0.68099999 10
7.316 7.4060001 -0.79299998 27
3.8199999 3.9820001 -0.69800001 24
7.2919998 7.4070001 -0.96700001 30
7.4369998 7.4099998 -0.62300003 30
3.0309999 3.1800001 -0.63800001 16
4.1989999 4.2789998 -0.66100001 30
7.4320002 7.4060001 -0.81099999 28
3.562 3.655 -0.65200001 24
7.4120002 7.4109998 -0.98699999 25
7.5489998 7.4039998 -0.63999999 29
3.0710001 3.1700001 -0.64600003 16
4.3569999 4.3699999 -0.68800002 8
7.559 7.4169998 -0.83099997 26
3.589 3.6240001 -0.65700001 19
5.6620002 5.573 -0.75700003 1
7.6820002 7.4180002 -0.65799999 29
3.1259999 3.175 -0.65799999 16
4.5289998 4.4710002 -0.71600002 12
7.6719999 7.4099998 -0.84899998 28
3.408 3.3870001 -0.625 17
5.651 5.4759998 -0.759 25
7.8179998 7.434 -0.676 36
3.1730001 3.171 -0.667 18
3.5710001 3.47 -0.56599998 5
7.8010001 7.4180002 -0.86799997 31
4.2940001 4.1999998 -0.787 19
5.7319999 5.4679999 -0.77200001 23
7.9390001 7.4310002 -0.69300002 39
3.221 3.1670001 -0.67699999 18
5.2249999 4.9970002 -0.82999998 26
7.927 7.4219999 -0.88599998 32
3.5680001 3.434 -0.65399998 24
7.9000001 7.4190001 -1.067 41
8.0670004 7.4349999 -0.70899999 39
3.266 3.1600001 -0.685 17
4.7449999 4.467 -0.75400001 20
8.0600004 7.428 -0.90499997 39
4.0310001 3.8180001 -0.73900002 20
5.645 5.2179999 -0.76499999 0
8.1890001 7.4310002 -0.72500002 38
3.325 3.1659999 -0.69700003 16
4.2270002 3.9159999 -0.67199999 27
8.191 7.4330001 -0.92299998 41
4.1659999 3.8840001 -0.76300001 20
4.8080001 4.375 -0.65200001 2
8.3179998 7.4299998 -0.741 39
3.3789999 3.165 -0.70700002 17
4.4920001 4.0970001 -0.71499997 19
8.3199997 7.4330001 -0.94099998 39
3.9990001 3.6689999 -0.73199999 28
6.2839999 5.6290002 -0.85399997 3
8.4510002 7.4330001 -0.75700003 37
3.4400001 3.171 -0.71899998 17
4.7199998 4.237 -0.75099999 25
8.4449997 7.4260001 -0.958 36
4.0619998 3.668 -0.74299997 19
6.2459998 5.507 -0.85000002 6
8.5749998 7.4250002 -0.77200001 37
3.493 3.168 -0.72799999 17
4.8909998 4.322 -0.778 29
8.5690002 7.4180002 -0.97399998 36
3.901 3.4660001 -0.713 31
5.559 4.8249998 -0.75700003 1
8.7189999 7.4320002 -0.78799999 37
3.552 3.1689999 -0.73900002 17
3.9849999 3.4649999 -0.63300002 9
8.7130003 7.4260001 -0.99199998 33
3.892 3.404 -0.70999998 22
4.737 4.0469999 -0.64499998 10
8.8549995 7.4310002 -0.80400002 39
3.6099999 3.1700001 -0.74900001 17
4.9190001 4.21 -0.78100002 29
8.8620005 7.434 -1.01 38
3.8859999 3.3440001 -0.708 16
5.638 4.7410002 -0.76800001 11
8.9870005 7.4250002 -0.81900001 34
3.6670001 3.168 -0.759 18
5.0739999 4.2750001 -0.80500001 35
8.9940004 7.427 -1.026 40
3.9130001 3.313 -0.71100003 16
5.401 4.4699998 -0.73500001 22
9.1379995 7.4310002 -0.83399999 33
3.724 3.1659999 -0.76899999 18
4.98 4.1290002 -0.78899997 29
9.1389999 7.4289999 -1.044 39
3.8659999 3.2219999 -0.70099998 19
5.3649998 4.3720002 -0.72899997 15
9.276 7.427 -0.84799999 32
3.7839999 3.165 -0.77899998 19
5.138 4.1919999 -0.81199998 33
9.2860003 7.4299998 -1.061 39
3.8959999 3.194 -0.70499998 19
6.48 5.1960001 -0.88099998 13
9.4289999 7.4310002 -0.86400002 25
3.8499999 3.168 -0.79000002 20
4.9749999 3.9949999 -0.78500003 31
9.4289999 7.4260001 -1.077 35
3.9449999 3.1830001 -0.71200001 21
5.802 4.579 -0.787 3
9.5670004 7.421 -0.87699997 33
3.911 3.1659999 -0.80000001 15
4.5310001 3.5810001 -0.71399999 27
9.5839996 7.4299998 -1.094 39
4.0009999 3.177 -0.72000003 22
5.388 4.1859999 -0.73000002 4
9.7299995 7.4299998 -0.89300001 40
3.977 3.1670001 -0.81099999 17
5.0219998 3.905 -0.78899997 36
9.7340002 7.4260001 -1.11 40
4.0679998 3.178 -0.73000002 21
7.2709999 5.559 -0.98400003 29
9.882 7.427 -0.90700001 39
4.0380001 3.164 -0.81999999 16
4.664 3.569 -0.73100001 27
9.8909998 7.428 -1.127 39
4.125 3.1700001 -0.73799998 21
5.6739998 4.2690001 -0.76599997 52
5.7480001 4.2519999 -0.52700001 54
4.098 3.1589999 -0.829 17
5.2290001 3.937 -0.81800002 30
5.7210002 4.2280002 -0.65100002 71
4.1869998 3.1670001 -0.74599999 21
5.6810002 4.2059999 -0.76499999 64
5.7399998 4.1789999 -0.52600002 84
4.1560001 3.151 -0.838 18
5.3410001 3.957 -0.83200002 30
5.7410002 4.1750002 -0.65200001 88
4.256 3.1659999 -0.75599998 22
5.73 4.1750002 -0.76999998 54
5.756 4.1240001 -0.52700001 83
4.2259998 3.1530001 -0.84899998 18
5.1069999 3.723 -0.79400003 29
5.7620001 4.1240001 -0.653 76
4.329 3.1689999 -0.76599997 21
5.7420001 4.1160002 -0.76899999 44
5.7649999 4.0650001 -0.52700001 81
4.2989998 3.154 -0.86000001 18
4.947 3.5480001 -0.76599997 37
5.7659998 4.0609999 -0.65200001 85
4.3990002 3.168 -0.77600002 20
5.7210002 4.0349998 -0.76499999 55
5.796 4.0219998 -0.52899998 79
4.369 3.1530001 -0.87099999 18
5.2199998 3.6830001 -0.80599999 33
5.7979999 4.0180001 -0.65399998 89
4.4759998 3.1700001 -0.787 21
5.7909999 4.0190001 -0.77200001 71
5.8460002 3.9920001 -0.53299999 57
4.4439998 3.155 -0.88200003 19
5.2389998 3.6370001 -0.80599999 37
5.8720002 4.0040002 -0.66000003 50
4.539 3.1630001 -0.79500002 21
5.79 3.9530001 -0.76899999 36
5.948 3.9960001 -0.54100001 52
4.5229998 3.1570001 -0.89399999 19
5.0669999 3.46 -0.77700001 28
5.961 3.9990001 -0.66900003 46
4.6149998 3.1630001 -0.80500001 24
5.8649998 3.9389999 -0.77600002 39
11.207 7.408 -1.017 34
4.6009998 3.1589999 -0.90499997 21
5.5739999 3.744 -0.85100001 34
8.125 5.362 -0.90899998 1
4.7030001 3.1700001 -0.81699997 21
5.6599998 3.74 -0.74699998 10
11.397 7.4109998 -1.0319999 35
4.6859999 3.164 -0.91799998 15
5.6030002 3.7019999 -0.852 34
8.8129997 5.7210002 -0.98199999 0
4.783 3.1700001 -0.82700002 23
6.3850002 4.1490002 -0.83899999 41
11.534 7.3779998 -1.041 1
4.7529998 3.154 -0.92699999 14
5.651 3.671 -0.85600001 34
8.526 5.4439998 -0.94700003 3
4.8639998 3.1700001 -0.838 21
8.1160002 5.1869998 -1.062 45
15.014 9.448 -1.351 11
4.8210001 3.1459999 -0.93599999 14
5.8470001 3.7360001 -0.88200003 34
8.151 5.119 -0.90200001 14
4.9510002 3.1730001 -0.84899998 21
7.5479999 4.744 -0.98400003 36
14.989 9.276 -1.344 25
4.8850002 3.1340001 -0.94400001 14
5.836 3.6659999 -0.87699997 32
7.9029999 4.882 -0.87099999 0
5.0240002 3.165 -0.85699999 23
7.3410001 4.5370002 -0.95300001 39
15.178 9.2379999 -1.3559999 23
4.9219999 3.1040001 -0.94700003 14
5.9980001 3.7049999 -0.89700001 40
8.5819998 5.2119999 -0.94300002 4
5.1160002 3.1689999 -0.86900002 27
7.3169999 4.448 -0.94599998 39
14.386 8.6110001 -1.28 1
4.961 3.075 -0.949 11
6.1079998 3.71 -0.91000003 33
5.2129998 3.174 -0.88200003 23
8.3559999 4.993 -1.076 35
14.498 8.533 -1.285 3
4.9549999 3.02 -0.94400001 15
6.0710001 3.6240001 -0.89999998 34
8.9639997 5.2639999 -0.97600001 6
5.3080001 3.177 -0.89300001 19
8.2989998 4.875 -1.064 47
11.146 6.4499998 -0.98299998 0
4.9920001 2.9890001 -0.94599998 13
5.7820001 3.3929999 -0.85299999 60
9.4069996 5.4299998 -1.02 1
5.3920002 3.1719999 -0.903 24
8.5679998 4.948 -1.0930001 48
15.568 8.8570004 -1.367 41
5.0300002 2.96 -0.949 12
6.4970002 3.747 -0.954 36
8.9989996 5.1059999 -0.97100002 1
5.487 3.1719999 -0.91500002 20
8.7980003 4.993 -1.117 33
14.416 8.0620003 -1.26 1
5.0599999 2.9260001 -0.94999999 12
6.5079999 3.6889999 -0.95099998 43
10.564 5.8920002 -1.1339999 38
5.5830002 3.171 -0.926 20
8.7010002 4.8530002 -1.1 47
14.335 7.8779998 -1.247 1
5.0960002 2.895 -0.95200002 11
6.645 3.701 -0.96600002 29
8.908 4.882 -0.95200002 59
5.684 3.1730001 -0.93800002 19
8.7370005 4.789 -1.099 42
14.292 7.7199998 -1.237 0
5.1370001 2.8659999 -0.95499998 13
6.415 3.51 -0.92799997 31
10.786 5.8080001 -1.146 32
5.7870002 3.1730001 -0.95099998 17
8.7889996 4.7319999 -1.1 44
14.359 7.6209998 -1.237 5
5.1890001 2.8440001 -0.95899999 11
7.046 3.7880001 -1.015 31
5.8959999 3.175 -0.96399999 16
8.7089996 4.6069999 -1.084 37
14.371 7.493 -1.2309999 1
5.2389998 2.8199999 -0.96399999 11
6.5650001 3.4660001 -0.94099998 43
10.968 5.7010002 -1.154 21
6.0019999 3.175 -0.97600001 16
8.7340002 4.539 -1.082 45
14.968 7.6680002 -1.275 11
5.2880001 2.7950001 -0.96799999 11
6.5469999 3.395 -0.93300003 26
6.1199999 3.178 -0.99000001 20
8.9820004 4.5830002 -1.107 47
15.073 7.5830002 -1.277 63
5.3309999 2.767 -0.97100002 10
6.2719998 3.194 -0.889 7
10.506 5.2670002 -1.094 32
6.2280002 3.1760001 -1.002 16
7.7810001 3.8989999 -0.954 45
15.068 7.4439998 -1.2690001 60
5.3920002 2.747 -0.977 10
6.77 3.3840001 -0.95499998 29
9.4540005 4.6539998 -0.97899997 24
6.3439999 3.1760001 -1.016 15
9.052 4.4530001 -1.104 37
15.286 7.4159999 -1.28 28
5.4299998 2.7149999 -0.97899997 10
6.4770002 3.1789999 -0.90899998 9
9.8170004 4.744 -1.011 32
6.4689999 3.178 -1.03 16
7.987 3.8570001 -0.96799999 35
15.573 7.4159999 -1.2970001 50
5.4530001 2.675 -0.97799999 10
6.9239998 3.335 -0.96700001 29
10.733 5.092 -1.099 20
6.5809999 3.1730001 -1.043 16
7.8109999 3.7019999 -0.94199997 13
15.865 7.415 -1.313 46
5.5110002 2.6530001 -0.98299998 10
6.9510002 3.2850001 -0.96499997 24
10.458 4.868 -1.0650001 18
6.7119999 3.175 -1.058 16
9.0439997 4.2059999 -1.085 45
16.18 7.4229999 -1.331 33
5.5599999 2.6259999 -0.98699999 11
7.099 3.2920001 -0.98100001 26
9.9949999 4.5650001 -1.011 30
6.842 3.175 -1.073 16
9.2040005 4.1989999 -1.098 43
16.504999 7.428 -1.349 10
5.5960002 2.592 -0.98799998 9
7.119 3.2390001 -0.97799999 28
9.9510002 4.4590001 -1.001 61
6.9679999 3.171 -1.087 19
9.2989998 4.1609998 -1.103 47
10.045 4.434 -0.81599998 98
5.6370001 2.5599999 -0.99000001 9
7.2680001 3.2420001 -0.99299997 29
9.974 4.3829999 -0.99800003 64
7.0879998 3.1630001 -1.1 18
9.3789997 4.1170001 -1.107 51
10.068 4.3600001 -0.81199998 80
5.6810002 2.53 -0.99299997 9
7.3559999 3.217 -1 26
10.025 4.3200002 -0.99699998 72
7.224 3.1600001 -1.115 19
9.3710003 4.0320001 -1.1 41
10.083 4.2810001 -0.80900002 99
5.7179999 2.4949999 -0.99400002 10
7.4889998 3.211 -1.013 23
10.084 4.2610002 -0.99699998 53
7.342 3.148 -1.127 22
9.6949997 4.0890002 -1.131 47
10.166 4.2309999 -0.81 76
5.7779999 2.471 -0.99900001 10
7.6690001 3.2219999 -1.031 27
11.013 4.5599999 -1.0829999 16
7.4559999 3.1329999 -1.1390001 22
9.8210001 4.0599999 -1.14 38
18.290001 7.461 -1.448 27
5.8499999 2.451 -1.007 10
7.7810001 3.2030001 -1.041 30
11.038 4.4780002 -1.0779999 10
7.6020002 3.1289999 -1.155 21
9.9969997 4.0479999 -1.153 38
15.825 6.3249998 -1.245 1
5.9039998 2.4230001 -1.011 10
7.9200001 3.194 -1.054 30
16.280001 6.4720001 -1.581 43
7.7480001 3.1240001 -1.1720001 20
9.9390001 3.9419999 -1.14 43
18.239 7.1399999 -1.425 47
5.9650002 2.3970001 -1.016 10
8.0810003 3.191 -1.069 30
15.92 6.198 -1.538 31
7.8410001 3.095 -1.1799999 17
10.192 3.9590001 -1.163 42
19.184 7.355 -1.489 58
6.0089998 2.3640001 -1.018 10
8.2519999 3.1900001 -1.086 30
7.9400001 3.0680001 -1.188 17
10.436 3.967 -1.184 39
19.297001 7.243 -1.488 76
6.0650001 2.335 -1.023 10
8.4180002 3.1860001 -1.102 31
16.455999 6.1399999 -1.5700001 44
8.0150003 3.0309999 -1.193 17
10.047 3.7379999 -1.133 33
19.292 7.086 -1.477 76
6.1020002 2.2980001 -1.024 10
8.6059999 3.1860001 -1.1210001 29
16.056 5.8610001 -1.523 25
8.0459995 2.9760001 -1.192 26
10.887 3.964 -1.222 18
19.292999 6.934 -1.467 74
6.1620002 2.27 -1.029 10
8.7880001 3.1819999 -1.138 23
16.236 5.802 -1.531 40
8.1750002 2.96 -1.205 16
10.671 3.802 -1.191 22
19.511999 6.8699999 -1.475 30
6.1999998 2.237 -1.03 10
8.9770002 3.1849999 -1.1569999 28
16.395 5.7389998 -1.5369999 39
8.2379999 2.921 -1.209 15
10.699 3.734 -1.188 34
18.650999 6.4320002 -1.401 21
6.2859998 2.22 -1.04 10
9.1529999 3.1789999 -1.174 26
15.292 5.2420001 -1.426 2
8.335 2.8929999 -1.217 16
10.871 3.7179999 -1.201 19
17.896999 6.0479999 -1.337 1
6.3119998 2.184 -1.04 10
9.3459997 3.1800001 -1.194 24
15.417 5.178 -1.4299999 2
8.4320002 2.8670001 -1.226 16
10.636 3.563 -1.169 26
19.743 6.5370002 -1.466 4
6.3769999 2.161 -1.046 10
9.533 3.177 -1.212 25
17.277 5.6830001 -1.594 28
8.5129995 2.8340001 -1.232 14
10.905 3.5780001 -1.193 15
20.055 6.5050001 -1.48 3
6.4320002 2.1340001 -1.051 11
9.7539997 3.1830001 -1.234 27
16.549999 5.3309999 -1.5190001 10
8.6359997 2.8150001 -1.245 14
10.968 3.523 -1.194 1
20.813999 6.6090002 -1.527 1
6.4860001 2.1059999 -1.0549999 10
9.9560003 3.1800001 -1.2539999 22
15.453 4.8730001 -1.411 17
8.7360001 2.7869999 -1.2539999 15
10.7 3.3629999 -1.159 7
19.212 5.9710002 -1.401 0
6.5339999 2.076 -1.058 10
10.168 3.178 -1.275 18
15.5 4.783 -1.408 19
8.915 2.7820001 -1.274 13
10.459 3.2160001 -1.128 0
20.743 6.3070002 -1.5039999 8
6.5949998 2.049 -1.064 11
10.394 3.177 -1.298 22
15.454 4.664 -1.396 35
9.0159998 2.7509999 -1.283 14
15.496 4.6609998 -1.664 50
19.454 5.7849998 -1.403 1
6.6420002 2.0179999 -1.067 10
10.638 3.1789999 -1.322 14
15.749 4.6479998 -1.416 5
9.0120001 2.688 -1.277 13
15.512 4.5609999 -1.6569999 51
25.457001 7.402 -1.825 31
6.6890001 1.9859999 -1.0700001 10
13.083 3.822 -1.619 8
9.0480003 2.638 -1.277 13
15.455 4.441 -1.6440001 43
19.518 5.5469999 -1.391 1
6.7319999 1.9529999 -1.073 10
13.288 3.7920001 -1.637 8
15.415 4.3439999 -1.372 30
9.0869999 2.5869999 -1.277 12
15.516 4.355 -1.643 47
20.243999 5.619 -1.434 2
6.7789998 1.92 -1.076 10
13.47 3.7539999 -1.653 9
16.798 4.6240001 -1.487 2
9.1560001 2.546 -1.281 12
15.542 4.2579999 -1.638 48
16.308001 4.4200001 -1.149 70
6.849 1.893 -1.0829999 10
13.616 3.7030001 -1.664 9
16.302999 4.3800001 -1.436 66
9.2510004 2.51 -1.289 13
15.554 4.1599998 -1.632 45
16.334999 4.3200002 -1.1440001 68
6.8899999 1.858 -1.086 10
13.829 3.6700001 -1.683 9
16.344 4.2839999 -1.433 54
9.3030005 2.4619999 -1.2920001 12
15.413 4.0209999 -1.61 51
19.764 5.099 -1.377 3
6.9619999 1.831 -1.0930001 11
14.154 3.6619999 -1.715 10
15.572 3.98 -1.359 3
9.375 2.418 -1.2970001 12
15.484 3.938 -1.61 48
20.068001 5.0479999 -1.391 3
6.9819999 1.789 -1.092 10
14.354 3.6199999 -1.732 10
17.403 4.335 -1.511 4
9.5109997 2.391 -1.311 13
15.583 3.862 -1.613 54
20.188999 4.9499998 -1.391 9
7.0219998 1.753 -1.094 11
14.561 3.5769999 -1.75 10
17.207001 4.1750002 -1.487 33
9.526 2.332 -1.308 12
15.606 3.766 -1.609 44
17.278999 4.1259999 -1.184 139
7.098 1.725 -1.102 10
14.691 3.513 -1.7589999 10
17.290001 4.085 -1.487 26
9.6169996 2.2909999 -1.3150001 13
15.812 3.714 -1.623 51
20.142 4.6799998 -1.373 12
7.1690001 1.694 -1.109 10
14.904 3.467 -1.777 10
15.956 3.668 -1.3660001 1
9.7720003 2.2639999 -1.331 14
16.09 3.675 -1.645 43
20.327 4.5939999 -1.378 15
7.2049999 1.655 -1.1109999 10
15.43 3.49 -1.8329999 12
18.862 4.2150002 -1.608 22
9.7379999 2.1930001 -1.322 12
16.308001 3.6210001 -1.66 52
19.962999 4.3850002 -1.346 5
7.257 1.62 -1.115 10
15.538 3.414 -1.839 13
19.561001 4.2470002 -1.659 60
9.8430004 2.152 -1.332 12
16.629 3.586 -1.686 43
19.615 4.1859999 -1.316 86
7.3299999 1.589 -1.123 10
15.631 3.335 -1.8430001 19
17.587999 3.707 -1.4859999 6
9.8739996 2.096 -1.331 12
16.745001 3.5050001 -1.691 46
19.653999 4.072 -1.312 88
7.3530002 1.546 -1.122 10
15.746 3.2590001 -1.85 18
16.965 3.4690001 -1.427 12
10.026 2.0639999 -1.347 13
16.296 3.3069999 -1.6390001 46
19.690001 3.9560001 -1.308 38
7.4439998 1.517 -1.133 9
15.935 3.197 -1.8660001 18
17.440001 3.4579999 -1.46 3
10.255 2.0450001 -1.373 15
16.792999 3.303 -1.683 44
19.763 3.8469999 -1.306 25
7.507 1.482 -1.1390001 10
16.181 3.1429999 -1.888 18
17.575001 3.3740001 -1.466 15
10.239 1.977 -1.367 13
16.745001 3.188 -1.6720001 30
19.931 3.756 -1.311 0
7.5539999 1.442 -1.142 10
16.528999 3.1070001 -1.9220001 17
20.781 3.8599999 -1.726 32
10.24 1.9119999 -1.362 13
16.690001 3.0739999 -1.66 6
37.647999 6.862 -2.4649999 9
