# .PCD v0.7 - Point Cloud Data file format
VERSION 0.7
FIELDS x y z intensity
SIZE 4 4 4 4
TYPE F F F F
COUNT 1 1 1 1
WIDTH 1579
HEIGHT 1
VIEWPOINT 0 0 0 1 0 0 0
POINTS 1579
DATA ascii
4.0700002 2.7579999 -0.13699999 28
2.2609999 1.577 -0.30899999 52
3.823 2.619 -0.361 50
4.085 2.7590001 -0.222 16
2.3989999 1.647 -0.27500001 37
3.9719999 2.6819999 -0.29499999 40
4.1259999 2.7520001 -0.139 32
2.2590001 1.55 -0.308 57
3.8989999 2.6289999 -0.36700001 51
4.0929999 2.721 -0.223 3
2.8329999 1.914 -0.324 26
3.9779999 2.6440001 -0.29499999 35
4.1350002 2.7149999 -0.14 0
2.339 1.58 -0.31799999 66
3.881 2.576 -0.36500001 46
5.4780002 3.585 -0.29899999 0
3.2390001 2.1530001 -0.37 43
4.0100002 2.6229999 -0.29699999 38
9.1040001 5.882 -0.31 18
2.3440001 1.558 -0.31799999 53
3.8970001 2.5450001 -0.366 46
5.4349999 3.5009999 -0.29699999 11
2.9690001 1.942 -0.338 32
4.0700002 2.6199999 -0.301 43
9.1859999 5.842 -0.31299999 14
2.418 1.581 -0.32699999 50
3.891 2.5 -0.36399999 44
5.4559999 3.4579999 -0.29800001 35
3.1889999 2.052 -0.36199999 45
4.0149999 2.5439999 -0.29699999 30
10.862 6.7979999 -0.37099999 43
2.3929999 1.54 -0.322 56
3.8239999 2.418 -0.35699999 41
5.507 3.4349999 -0.30000001 51
3.3199999 2.102 -0.37599999 56
3.974 2.477 -0.29300001 46
10.772 6.6339998 -0.368 49
2.427 1.536 -0.32600001 43
3.8280001 2.382 -0.35600001 55
4.0749998 2.5009999 -0.222 1
3.0480001 1.899 -0.34400001 31
4.027 2.47 -0.296 43
8.7320004 5.2909999 -0.29899999 12
2.5380001 1.58 -0.33899999 40
3.858 2.3610001 -0.35800001 44
5.6560001 3.415 -0.30700001 5
3.3310001 2.0420001 -0.375 44
4.0289998 2.431 -0.296 46
8.0129995 4.777 -0.27399999 11
2.5309999 1.55 -0.33700001 36
3.842 2.313 -0.35499999 47
6.0819998 3.612 -0.33000001 16
3.375 2.0339999 -0.37799999 49
4.0840001 2.4230001 -0.29899999 46
8.2600002 4.8429999 -0.28200001 18
2.5869999 1.558 -0.34299999 42
3.826 2.266 -0.35299999 50
6.151 3.5940001 -0.33199999 1
3.323 1.97 -0.37099999 45
4.1440001 2.4189999 -0.30199999 49
8.2620001 4.7659998 -0.28099999 6
2.5550001 1.513 -0.338 44
3.8929999 2.267 -0.35800001 47
6.6030002 3.7939999 -0.35600001 13
2.9849999 1.74 -0.33199999 29
4.158 2.3870001 -0.30199999 47
10.158 5.7639999 -0.345 44
2.5179999 1.466 -0.331 46
3.8770001 2.22 -0.35499999 46
5.3909998 3.0469999 -0.289 3
2.9560001 1.694 -0.32699999 38
4.0910001 2.309 -0.296 37
10.24 5.7129998 -0.34599999 34
2.612 1.495 -0.34200001 52
3.885 2.188 -0.354 39
7.0139999 3.898 -0.375 16
2.793 1.574 -0.308 33
4.2259998 2.346 -0.30500001 39
2.642 1.487 -0.345 41
3.8559999 2.135 -0.34999999 45
5.164 2.8210001 -0.27500001 4
3.4170001 1.893 -0.375 44
4.3260002 2.3610001 -0.31 42
8.7229996 4.7049999 -0.292 0
2.7030001 1.495 -0.35100001 51
3.957 2.1530001 -0.35800001 51
5.0879998 2.733 -0.27000001 0
3.437 1.8710001 -0.37599999 41
4.3699999 2.3440001 -0.31200001 48
10.186 5.401 -0.34 28
2.7520001 1.4960001 -0.35600001 36
4.0089998 2.145 -0.361 51
5.5570002 2.934 -0.29300001 26
3.46 1.852 -0.377 47
4.5349998 2.391 -0.32300001 38
11.396 5.9390001 -0.37799999 10
2.7309999 1.459 -0.352 40
4.0229998 2.115 -0.36000001 51
5.4250002 2.8150001 -0.285 9
3.5599999 1.872 -0.38600001 47
4.7030001 2.437 -0.333 44
11.733 6.0100002 -0.38699999 50
2.8210001 1.4809999 -0.361 39
3.971 2.0510001 -0.354 53
5.4260001 2.767 -0.28299999 0
3.395 1.7539999 -0.366 44
5.006 2.5480001 -0.352 53
9.5369997 4.8000002 -0.31200001 9
3.0409999 1.568 -0.38800001 50
4.0190001 2.04 -0.35600001 53
7.0489998 3.5320001 -0.366 1
3.4059999 1.729 -0.36500001 38
4.151 2.076 -0.29100001 37
9.6569996 4.7750001 -0.31400001 19
2.895 1.466 -0.36700001 47
3.9489999 1.9680001 -0.34799999 54
5.2080002 2.563 -0.26899999 3
3.303 1.646 -0.35299999 45
4.2199998 2.0739999 -0.294 36
12.68 6.1599998 -0.41 45
3.1159999 1.55 -0.39399999 57
3.9430001 1.931 -0.34599999 54
5.256 2.5409999 -0.26899999 0
3.4330001 1.6799999 -0.36500001 38
4.2360001 2.0439999 -0.29300001 39
9.5019999 4.533 -0.30399999 0
3.1329999 1.53 -0.39399999 55
3.9219999 1.886 -0.34200001 53
6.9780002 3.313 -0.35499999 18
3.5769999 1.719 -0.37799999 43
4.237 2.007 -0.292 39
9.5629997 4.48 -0.30399999 17
3.2060001 1.5369999 -0.40099999 54
3.937 1.858 -0.34200001 51
8.1780005 3.812 -0.414 35
3.5480001 1.674 -0.373 46
4.0900002 1.903 -0.28 39
13.004 5.9819999 -0.41 47
3.2079999 1.51 -0.39899999 61
3.9630001 1.836 -0.34200001 59
7.8860002 3.608 -0.396 15
3.7290001 1.727 -0.38999999 54
4.5250001 2.066 -0.308 36
11.965 5.402 -0.373 38
3.135 1.448 -0.38800001 48
4.0019999 1.8200001 -0.34299999 51
8.1379995 3.655 -0.40599999 16
3.6589999 1.663 -0.38 46
5.0580001 2.267 -0.34200001 36
11.777 5.2189999 -0.36399999 20
2.8329999 1.283 -0.34900001 41
4.0339999 1.8 -0.34400001 51
8.2629995 3.641 -0.40900001 22
3.6400001 1.623 -0.37599999 52
5.4390001 2.392 -0.36500001 42
11.821 5.1409998 -0.36199999 17
3.2079999 1.426 -0.39300001 46
4.1269999 1.807 -0.34999999 43
6.4039998 2.7690001 -0.315 10
3.668 1.605 -0.377 56
5.6409998 2.4330001 -0.377 43
11.974 5.1069999 -0.36300001 8
3.016 1.3150001 -0.36700001 35
4.1599998 1.7869999 -0.35100001 43
6.158 2.612 -0.30000001 0
3.688 1.582 -0.377 48
5.4510002 2.306 -0.36199999 39
11.891 4.9749999 -0.35600001 1
2.937 1.255 -0.35600001 39
4.21 1.772 -0.35299999 41
6.6149998 2.7509999 -0.31999999 6
3.6589999 1.539 -0.37200001 49
5.2709999 2.1860001 -0.347 47
14.51 5.954 -0.43099999 37
3.181 1.3329999 -0.38299999 42
4.1859999 1.728 -0.34900001 38
7.9860001 3.257 -0.384 48
3.6110001 1.489 -0.36500001 46
4.0050001 1.628 -0.26199999 2
7.9959998 3.2160001 -0.234 1
3.1889999 1.309 -0.382 43
3.947 1.597 -0.32699999 51
6.881 2.75 -0.32800001 21
3.6630001 1.48 -0.368 60
4.0539999 1.6160001 -0.26300001 8
8.0419998 3.1700001 -0.233 1
3.244 1.3049999 -0.38699999 42
3.938 1.561 -0.324 54
8.0159998 3.1389999 -0.37900001 25
3.7219999 1.473 -0.37200001 50
14.294 5.5219998 -0.41 36
3.2839999 1.295 -0.38999999 53
3.908 1.518 -0.31999999 54
5.3649998 2.059 -0.25099999 0
3.7620001 1.459 -0.37400001 63
4.5780001 1.751 -0.29300001 34
14.129 5.3449998 -0.40000001 41
2.914 1.125 -0.34400001 43
3.911 1.487 -0.31799999 58
7.4889998 2.8150001 -0.34799999 42
3.766 1.4299999 -0.37200001 61
4.2950001 1.608 -0.273 40
14.4 5.336 -0.403 40
3.095 1.17 -0.36300001 37
3.8940001 1.45 -0.315 59
7.3829999 2.7160001 -0.34 54
3.711 1.3789999 -0.36500001 53
4.0359998 1.48 -0.255 34
14.792 5.3660002 -0.40900001 39
3.4360001 1.271 -0.40099999 58
3.8729999 1.4119999 -0.31099999 53
7.3390002 2.6429999 -0.33500001 60
3.7590001 1.368 -0.36700001 52
4.1339998 1.483 -0.259 31
14.015 4.98 -0.38299999 47
3.3610001 1.217 -0.38999999 65
3.9200001 1.4 -0.31299999 47
7.197 2.5420001 -0.32600001 51
3.7679999 1.346 -0.36700001 59
4.1069999 1.448 -0.25600001 33
13.888 4.848 -0.375 47
3.4130001 1.214 -0.39500001 66
3.915 1.374 -0.31099999 49
7.3039999 2.5339999 -0.32800001 65
3.7850001 1.327 -0.366 64
4.04 1.399 -0.25099999 30
8.3559999 2.865 -0.223 2
3.3150001 1.158 -0.382 50
3.937 1.357 -0.31099999 47
7.434 2.5339999 -0.33199999 56
3.779 1.301 -0.36399999 63
4.0640001 1.382 -0.25 52
8.9770002 3.023 -0.237 0
3.4779999 1.193 -0.39899999 56
3.987 1.349 -0.31299999 60
7.573 2.5350001 -0.336 16
3.8329999 1.296 -0.368 60
4.059 1.355 -0.249 38
8.7650003 2.898 -0.23 18
3.4100001 1.148 -0.389 56
4.0079999 1.331 -0.31299999 61
8.6049995 2.8269999 -0.37900001 41
3.8540001 1.279 -0.368 57
4.1609998 1.363 -0.25299999 4
6.8299999 2.2160001 -0.177 3
3.424 1.132 -0.389 56
3.9749999 1.295 -0.30899999 50
8.816 2.842 -0.38499999 42
3.904 1.271 -0.37099999 63
4.197 1.349 -0.25400001 2
8.9200001 2.8410001 -0.228 64
3.3329999 1.081 -0.377 49
4.0380001 1.291 -0.31299999 47
8.2969999 2.6240001 -0.36000001 55
3.697 1.181 -0.34999999 50
6.414 2.023 -0.38600001 40
8.7950001 2.747 -0.223 77
3.3440001 1.063 -0.377 58
4.0190001 1.261 -0.30899999 40
8.7589998 2.717 -0.377 72
3.77 1.181 -0.35499999 56
4.1199999 1.274 -0.24699999 0
8.8789997 2.72 -0.222 54
3.253 1.0140001 -0.36500001 69
4.1279998 1.27 -0.31600001 40
8.2419996 2.5079999 -0.35299999 44
3.592 1.103 -0.33700001 46
6.1430001 1.863 -0.366 44
8.9130001 2.677 -0.221 62
3.256 0.995 -0.36399999 63
4.0749998 1.228 -0.31099999 36
8.7519999 2.6099999 -0.37099999 45
3.4760001 1.046 -0.324 52
6.585 1.957 -0.38999999 52
8.8620005 2.609 -0.21699999 53
3.266 0.97799999 -0.36300001 64
4.1300001 1.22 -0.31299999 6
8.316 2.431 -0.34999999 53
3.4119999 1.006 -0.317 37
6.6389999 1.934 -0.391 40
8.9309998 2.5769999 -0.21600001 67
3.279 0.96200001 -0.36300001 72
5.8499999 1.693 -0.442 49
8.6560001 2.4790001 -0.36199999 68
3.385 0.97799999 -0.31299999 43
6.5570002 1.8710001 -0.384 47
8.948 2.529 -0.214 84
3.2809999 0.94300002 -0.36199999 69
5.947 1.686 -0.447 53
8.5080004 2.3859999 -0.35299999 33
3.5280001 0.99800003 -0.32499999 37
6.7449999 1.8839999 -0.39199999 48
8.9910002 2.4879999 -0.213 76
3.3099999 0.93099999 -0.36399999 84
5.9239998 1.6440001 -0.44299999 55
8.4540005 2.3199999 -0.34799999 20
3.4719999 0.96100003 -0.31799999 36
6.829 1.868 -0.39500001 52
9.0609999 2.454 -0.212 2
3.3369999 0.91799998 -0.36500001 67
5.2779999 1.433 -0.39300001 39
8.4569998 2.2720001 -0.34599999 41
3.5650001 0.96600002 -0.32499999 43
6.7670002 1.811 -0.389 51
18.030001 4.7789998 -0.417 46
3.345 0.89999998 -0.36500001 68
5.066 1.346 -0.375 46
8.5249996 2.2409999 -0.34599999 34
3.652 0.96700001 -0.33199999 39
6.9460001 1.818 -0.39700001 53
19.252001 4.9910002 -0.44100001 42
3.375 0.88800001 -0.36700001 78
5.1139998 1.3279999 -0.377 42
8.5509996 2.197 -0.345 24
4.138 1.072 -0.375 53
7.0640001 1.807 -0.40200001 47
19.559 4.9590001 -0.442 38
3.392 0.87199998 -0.36700001 66
5.256 1.334 -0.38499999 40
8.4770002 2.1289999 -0.33899999 30
4.2329998 1.072 -0.382 50
7.1360002 1.784 -0.403 53
19.885 4.927 -0.44400001 42
3.4430001 0.866 -0.37099999 63
5.3449998 1.327 -0.38999999 33
8.5900002 2.1110001 -0.34099999 8
4.0840001 1.011 -0.36700001 58
7.0999999 1.7359999 -0.39899999 48
20.039 4.8540001 -0.44299999 43
3.447 0.84799999 -0.37 55
6.1170001 1.485 -0.44400001 47
7.3070002 1.755 -0.28799999 6
4.079 0.98699999 -0.36500001 47
7.2179999 1.725 -0.40400001 61
20.275999 4.8010001 -0.44299999 44
3.6600001 0.88 -0.39199999 54
5.3730001 1.274 -0.389 35
7.3070002 1.715 -0.28600001 11
4.105 0.97100002 -0.366 61
7.1199999 1.6619999 -0.396 56
20.559 4.757 -0.44400001 47
3.6730001 0.86199999 -0.39199999 54
5.8940001 1.3660001 -0.42399999 41
7.309 1.676 -0.28400001 26
4.1149998 0.94999999 -0.36500001 58
7.0489998 1.607 -0.38999999 50
20.589001 4.6539998 -0.44 46
3.8399999 0.88 -0.40799999 59
7.3039999 1.635 -0.28200001 1
4.112 0.92699999 -0.36300001 56
6.9910002 1.556 -0.38499999 50
20.914 4.6129999 -0.442 51
3.9360001 0.88 -0.417 68
4.7360001 1.045 -0.338 39
7.473 1.632 -0.287 0
4.1230001 0.90700001 -0.36300001 63
7.066 1.534 -0.38699999 49
20.954 4.5100002 -0.43799999 50
3.9809999 0.86799997 -0.41999999 62
4.3769999 0.94199997 -0.31099999 27
10.033 2.138 -0.38299999 8
4.0760002 0.87400001 -0.35800001 63
7.1680002 1.518 -0.391 49
21.256001 4.461 -0.43900001 41
3.974 0.84500003 -0.41800001 66
4.4099998 0.92500001 -0.31200001 31
9.8909998 2.0539999 -0.375 14
4.0840001 0.85299999 -0.35699999 63
7.2259998 1.4910001 -0.39199999 52
14.032 2.869 -0.28600001 4
3.941 0.81599998 -0.41299999 65
4.369 0.89300001 -0.308 28
9.8909998 2.0009999 -0.37200001 37
4.0609999 0.82700002 -0.354 68
7.4330001 1.494 -0.40099999 50
14.027 2.7939999 -0.28299999 31
4 0.80699998 -0.41800001 64
4.5209999 0.89999998 -0.317 33
9.9119997 1.9529999 -0.37099999 43
4.105 0.81300002 -0.35600001 69
7.3839998 1.444 -0.396 50
14.124 2.7379999 -0.28200001 40
3.9719999 0.77899998 -0.414 59
4.27 0.82700002 -0.29800001 32
9.967 1.91 -0.37 44
4.0970001 0.78899997 -0.354 72
7.4460001 1.4170001 -0.398 51
13.978 2.635 -0.27599999 40
3.9660001 0.75700003 -0.412 69
4.4169998 0.83200002 -0.308 35
10.028 1.868 -0.37 48
4.1389999 0.77499998 -0.35699999 68
7.5040002 1.387 -0.39899999 40
14.019 2.569 -0.27399999 27
4.0219998 0.74599999 -0.417 75
5.4320002 0.99400002 -0.377 35
10.032 1.816 -0.368 42
4.1430001 0.75400001 -0.35600001 67
7.8649998 1.4119999 -0.41600001 41
13.942 2.4820001 -0.26899999 80
3.378 0.60799998 -0.34900001 68
10.116 1.778 -0.36899999 20
4.177 0.73699999 -0.35699999 60
7.8270001 1.364 -0.412 42
13.933 2.4070001 -0.266 90
4.0009999 0.69800001 -0.412 72
3.8829999 0.66900003 -0.26699999 2
10.181 1.735 -0.36899999 6
4.007 0.68599999 -0.34200001 48
7.7259998 1.306 -0.405 44
13.962 2.339 -0.264 97
4.0489998 0.685 -0.41600001 72
6.2880001 1.05 -0.43099999 58
12.748 2.1070001 -0.45899999 55
4.5430002 0.75300002 -0.38600001 40
7.1129999 1.165 -0.37099999 35
14.017 2.2750001 -0.26199999 79
3.3640001 0.551 -0.34400001 59
6.316 1.021 -0.43200001 54
10.404 1.664 -0.37200001 0
5.013 0.80500001 -0.42500001 47
7.0110002 1.1109999 -0.36399999 35
24.141001 3.7920001 -0.447 23
3.6010001 0.57099998 -0.36700001 38
6.323 0.98900002 -0.43099999 56
12.698 1.965 -0.45199999 61
5.0970001 0.79100001 -0.43099999 54
7.6079998 1.166 -0.39399999 49
24.232 3.681 -0.44499999 23
4.2800002 0.65600002 -0.43599999 56
6.3439999 0.95899999 -0.43000001 53
12.697 1.899 -0.449 53
5.1539998 0.773 -0.43399999 52
7.5780001 1.1210001 -0.38999999 65
24.134001 3.5420001 -0.43900001 31
4.039 0.597 -0.41 48
6.4569998 0.94199997 -0.43700001 54
12.604 1.819 -0.44400001 46
5.382 0.778 -0.45199999 56
7.5359998 1.076 -0.38699999 61
24.686001 3.493 -0.44400001 33
4.3319998 0.61699998 -0.43900001 55
6.5580001 0.92299998 -0.442 56
5.3850002 0.75099999 -0.45100001 56
7.5830002 1.043 -0.38699999 65
24.954 3.4030001 -0.44400001 17
4.0650001 0.55800003 -0.41 50
6.5799999 0.89099997 -0.442 63
11.111 1.489 -0.38699999 14
5.4559999 0.73199999 -0.456 56
7.6100001 1.007 -0.38699999 69
24.025999 3.154 -0.42399999 1
3.875 0.51099998 -0.38999999 49
6.6739998 0.86900002 -0.447 57
10.559 1.36 -0.36500001 40
4.9580002 0.639 -0.41299999 35
7.6399999 0.972 -0.38699999 54
24.174 3.0480001 -0.42199999 17
4.0310001 0.51099998 -0.405 52
6.724 0.84100002 -0.449 61
10.463 1.293 -0.36000001 41
4.882 0.60399997 -0.405 35
7.6939998 0.93900001 -0.389 29
19.149 2.316 -0.331 95
4.2360001 0.514 -0.42500001 55
6.7140002 0.80400002 -0.447 58
10.459 1.239 -0.35800001 60
5.5110002 0.653 -0.45699999 54
9.3290005 1.09 -0.46900001 47
27.785999 3.22 -0.47600001 43
4.2189999 0.49000001 -0.42199999 55
6.7729998 0.77600002 -0.449 53
10.483 1.188 -0.35699999 57
5.533 0.62599999 -0.45699999 49
9.4069996 1.051 -0.472 45
26.103001 2.8900001 -0.44299999 1
4.4180002 0.49000001 -0.44100001 48
6.7410002 0.73799998 -0.44600001 53
10.418 1.127 -0.35299999 23
5.1259999 0.55400002 -0.42199999 33
9.7139997 1.035 -0.48500001 47
26.108999 2.7579999 -0.43900001 19
4.4640002 0.472 -0.44499999 26
6.8140001 0.70999998 -0.449 55
10.354 1.068 -0.34900001 5
5.217 0.53600001 -0.42899999 43
9.9289999 1.007 -0.49399999 49
26.240999 2.6389999 -0.43700001 2
4.447 0.447 -0.442 21
6.8649998 0.68000001 -0.45100001 52
10.407 1.02 -0.34999999 0
5.1370001 0.50099999 -0.421 52
9.934 0.95700002 -0.493 45
27.004999 2.5780001 -0.44600001 15
4.4489999 0.42399999 -0.44100001 20
6.9850001 0.65600002 -0.458 49
10.581 0.98299998 -0.354 0
5.2350001 0.484 -0.428 49
9.8479996 0.898 -0.48699999 58
29.59 2.674 -0.48500001 34
4.4520001 0.40099999 -0.44100001 19
7.3280001 0.65100002 -0.479 55
10.069 0.884 -0.33500001 0
5.3130002 0.46399999 -0.43399999 46
9.9449997 0.85500002 -0.49000001 58
29.656 2.5309999 -0.48199999 39
4.4790001 0.38 -0.442 22
6.7490001 0.565 -0.44 43
13.468 1.115 -0.447 5
5.5289998 0.454 -0.45100001 36
9.9879999 0.80900002 -0.491 56
24.372 1.956 -0.39300001 3
4.4860001 0.35699999 -0.44299999 22
6.4980001 0.51099998 -0.42300001 41
13.541 1.051 -0.447 3
5.5539999 0.428 -0.45199999 25
7.3099999 0.55400002 -0.35800001 3
24.256001 1.824 -0.38800001 82
4.4879999 0.33500001 -0.442 22
6.7589998 0.49599999 -0.43900001 52
15.111 1.097 -0.49700001 2
5.5650001 0.40000001 -0.45199999 17
10.066 0.71200001 -0.49200001 56
24.440001 1.715 -0.38800001 71
4.4749999 0.31099999 -0.44 23
6.6830001 0.45699999 -0.433 50
5.5650001 0.37200001 -0.45100001 16
10.219 0.671 -0.498 48
24.549 1.6 -0.38699999 15
4.4809999 0.28799999 -0.44 20
6.8169999 0.43099999 -0.44100001 53
15.114 0.94499999 -0.493 2
5.5599999 0.34299999 -0.44999999 17
10.371 0.62900001 -0.50400001 57
31.077 1.869 -0.486 30
4.4780002 0.264 -0.43900001 21
7.2740002 0.42300001 -0.46900001 52
17.118999 0.98299998 -0.55699998 31
5.5700002 0.315 -0.44999999 18
10.555 0.58700001 -0.51200002 62
32.743999 1.804 -0.50800002 32
4.4759998 0.241 -0.43799999 22
7.4390001 0.39500001 -0.479 46
17.275999 0.90600002 -0.56 35
5.5609999 0.28600001 -0.44800001 19
10.659 0.53799999 -0.51599997 58
30.851 1.546 -0.47600001 5
4.4809999 0.21799999 -0.43799999 22
7.8080001 0.375 -0.50199997 20
17.945999 0.85100001 -0.57999998 51
5.5770001 0.25799999 -0.449 18
10.794 0.491 -0.52100003 50
33.362 1.505 -0.51099998 12
4.4949999 0.19599999 -0.43900001 23
7.79 0.33500001 -0.5 14
15.002 0.63499999 -0.48300001 14
5.573 0.23 -0.44800001 18
11.011 0.44499999 -0.52999997 53
30.289 1.214 -0.461 4
4.4650002 0.17200001 -0.435 25
7.75 0.29300001 -0.49599999 14
15.002 0.56 -0.48100001 18
5.5599999 0.20100001 -0.44600001 19
10.63 0.37599999 -0.51099998 43
37.326 1.3099999 -0.565 43
4.467 0.149 -0.435 21
7.7020001 0.25299999 -0.493 13
15.043 0.48699999 -0.48100001 1
5.5630002 0.17200001 -0.44600001 19
10.749 0.32600001 -0.51499999 51
37.231998 1.1210001 -0.56 41
4.4679999 0.126 -0.43399999 21
7.6849999 0.213 -0.491 14
5.5710001 0.145 -0.44600001 19
11.49 0.29100001 -0.55000001 35
37.221001 0.93400002 -0.55699998 42
4.4720001 0.104 -0.43399999 22
7.678 0.17399999 -0.49000001 13
5.5710001 0.116 -0.44600001 19
12.104 0.245 -0.57800001 19
24.153999 0.486 -0.359 2
4.474 0.081 -0.43399999 24
7.6719999 0.13500001 -0.48899999 13
20.219 0.35100001 -0.64200002 56
5.5650001 0.088 -0.44499999 20
11.72 0.17900001 -0.55900002 13
38.063 0.57599998 -0.56400001 54
4.473 0.057999998 -0.43399999 26
7.6490002 0.097000003 -0.48699999 13
19.983999 0.245 -0.63300002 58
5.553 0.059999999 -0.44299999 19
11.669 0.119 -0.55599999 13
38.151001 0.38699999 -0.56199998 52
4.4520001 0.035 -0.43099999 26
7.677 0.057999998 -0.48800001 13
16.886 0.123 -0.53399998 6
5.5619998 0.032000002 -0.44299999 20
11.741 0.061000001 -0.55800003 8
38.362 0.199 -0.56300002 54
4.4520001 0.012 -0.43099999 24
7.6659999 0.018999999 -0.48699999 13
18.278999 0.043000001 -0.57599998 20
5.5300002 0.003 -0.44 23
11.77 0.0020000001 -0.55900002 14
38.556999 0.0080000004 -0.56400001 49
4.448 -0.0089999996 -0.43000001 23
7.6859999 -0.017999999 -0.48699999 13
19.716999 -0.052000001 -0.62099999 18
5.5349998 -0.024 -0.44100001 22
11.78 -0.056000002 -0.55900002 12
38.978001 -0.185 -0.56699997 37
4.4530001 -0.032000002 -0.43099999 23
7.6999998 -0.057 -0.48800001 13
20.43 -0.155 -0.64200002 25
5.5380001 -0.052000001 -0.44 21
11.714 -0.114 -0.55500001 13
39.042999 -0.37799999 -0.56599998 35
4.467 -0.055 -0.43200001 26
7.7059999 -0.096000001 -0.48800001 13
20.916 -0.26300001 -0.65600002 18
5.5440001 -0.079999998 -0.44100001 20
11.793 -0.17399999 -0.55800003 10
39.352001 -0.57700002 -0.56900001 48
4.461 -0.077 -0.43099999 23
7.6989999 -0.134 -0.48699999 13
19.447001 -0.34200001 -0.60900003 3
5.5409999 -0.108 -0.44 20
11.77 -0.23199999 -0.55699998 10
39.432999 -0.77499998 -0.56800002 45
4.4660001 -0.1 -0.43099999 21
7.7340002 -0.17399999 -0.48899999 12
19.561001 -0.44100001 -0.61199999 2
5.5359998 -0.13500001 -0.44 19
11.668 -0.289 -0.551 13
39.799 -0.97799999 -0.57099998 57
4.467 -0.123 -0.43099999 21
7.7319999 -0.213 -0.48800001 13
19.471001 -0.53500003 -0.60799998 3
5.5469999 -0.164 -0.44 19
11.781 -0.34999999 -0.55599999 11
40.362 -1.192 -0.57800001 59
4.4679999 -0.146 -0.43099999 21
7.7160001 -0.25099999 -0.48699999 12
19.493 -0.634 -0.60799998 3
5.552 -0.192 -0.44 18
11.736 -0.40700001 -0.55400002 13
40.452 -1.396 -0.57800001 43
4.4759998 -0.168 -0.43200001 22
7.7649999 -0.292 -0.49000001 13
19.587 -0.73400003 -0.611 3
5.5580001 -0.22 -0.44100001 17
11.838 -0.47099999 -0.55800003 9
40.452999 -1.596 -0.57599998 38
4.4790001 -0.191 -0.43200001 22
7.789 -0.33199999 -0.491 12
19.483999 -0.82700002 -0.60699999 3
5.5599999 -0.249 -0.44100001 18
11.921 -0.53299999 -0.56199998 8
41.300999 -1.834 -0.588 63
4.4699998 -0.214 -0.43099999 22
7.7849998 -0.37 -0.491 12
19.587999 -0.92900002 -0.61000001 2
5.572 -0.27700001 -0.442 18
11.781 -0.58499998 -0.55500001 10
41.382999 -2.0439999 -0.58700001 56
4.4679999 -0.236 -0.43099999 22
7.8319998 -0.412 -0.49399999 12
19.827999 -1.039 -0.61699998 3
5.5710001 -0.30500001 -0.442 17
11.877 -0.64999998 -0.55900002 9
41.265999 -2.2409999 -0.58499998 57
4.4569998 -0.25799999 -0.43000001 23
7.7930002 -0.449 -0.491 12
19.593 -1.124 -0.60900003 3
5.5689998 -0.333 -0.442 17
11.853 -0.708 -0.55800003 10
41.956001 -2.484 -0.59500003 32
4.434 -0.27900001 -0.428 23
7.803 -0.48899999 -0.49200001 12
19.961 -1.244 -0.62099999 3
5.573 -0.361 -0.442 17
11.976 -0.77399999 -0.56400001 7
40.438 -2.5969999 -0.57200003 5
4.4190001 -0.301 -0.426 22
7.848 -0.53100002 -0.495 12
19.764 -1.33 -0.61400002 2
5.5749998 -0.389 -0.442 19
11.863 -0.82700002 -0.55900002 6
34.776001 -2.405 -0.49200001 1
4.4130001 -0.32300001 -0.426 23
7.8340001 -0.56900001 -0.49399999 14
19.775 -1.429 -0.61500001 3
5.5689998 -0.417 -0.442 18
11.956 -0.89300001 -0.56300002 7
44.182999 -3.273 -0.62400001 56
4.4250002 -0.34599999 -0.42699999 21
7.9060001 -0.61400002 -0.49900001 13
20.125 -1.554 -0.62599999 3
5.5669999 -0.44499999 -0.442 19
11.972 -0.95300001 -0.56400001 7
33.676998 -2.6630001 -0.47600001 7
4.4099998 -0.36700001 -0.426 24
7.8969998 -0.653 -0.498 13
17.976999 -1.478 -0.55900002 28
5.5739999 -0.47400001 -0.442 19
11.951 -1.012 -0.56300002 8
31.414 -2.6389999 -0.44299999 84
4.4159999 -0.38999999 -0.426 23
7.9200001 -0.69499999 -0.5 12
17.354 -1.513 -0.53899997 33
5.572 -0.50199997 -0.44299999 17
12.479 -1.119 -0.588 20
33.577999 -2.9860001 -0.47400001 17
4.4229999 -0.41299999 -0.42699999 21
7.9390001 -0.736 -0.50099999 12
17.318001 -1.596 -0.53899997 51
5.5900002 -0.53200001 -0.44400001 18
12.445 -1.178 -0.58700001 24
33.490002 -3.1459999 -0.47299999 3
4.4250002 -0.43599999 -0.428 20
7.934 -0.77600002 -0.50099999 13
17.254 -1.676 -0.537 55
5.5960002 -0.56 -0.44499999 18
11.824 -1.179 -0.55800003 35
43.752998 -4.3260002 -0.61799997 6
4.4359999 -0.45899999 -0.42899999 23
7.9770002 -0.81999999 -0.50400001 12
16.669001 -1.702 -0.51899999 58
5.6020002 -0.58899999 -0.44600001 17
11.447 -1.198 -0.54000002 50
44.344002 -4.6030002 -0.62699997 11
4.4439998 -0.48300001 -0.43000001 23
7.9949999 -0.86199999 -0.50599998 12
14.796 -1.584 -0.461 58
5.599 -0.61699998 -0.44499999 19
11.031 -1.209 -0.52100003 58
37.083 -4.0359998 -0.52399999 0
4.4460001 -0.50599998 -0.43099999 21
7.967 -0.898 -0.50400001 14
14.927 -1.673 -0.465 50
5.605 -0.64600003 -0.44600001 17
10.823 -1.2410001 -0.51099998 48
16.517 -1.8789999 -0.233 2
4.4489999 -0.528 -0.43099999 23
7.9879999 -0.94199997 -0.50599998 13
16.311001 -1.909 -0.50800002 58
5.6090002 -0.67500001 -0.447 17
10.369 -1.2410001 -0.49000001 48
44.097 -5.2340002 -0.62400001 15
4.4400001 -0.55000001 -0.43099999 22
8.0089998 -0.98400003 -0.50800002 13
13.178 -1.608 -0.41100001 24
5.6139998 -0.704 -0.44800001 17
10.055 -1.253 -0.47600001 53
25.157 -3.112 -0.35600001 15
4.4380002 -0.57200003 -0.43099999 20
8.026 -1.026 -0.509 13
13.205 -1.678 -0.412 63
5.618 -0.73299998 -0.44800001 17
9.835 -1.275 -0.46599999 57
17.604 -2.2650001 -0.249 1
4.441 -0.59500003 -0.43099999 22
8.1070004 -1.0779999 -0.514 19
9.8870001 -1.3049999 -0.30899999 0
5.599 -0.759 -0.447 27
9.7790003 -1.317 -0.463 56
17.705 -2.365 -0.25099999 0
4.4390001 -0.61799997 -0.43099999 22
7.8119998 -1.0779999 -0.49599999 39
9.967 -1.365 -0.31099999 5
5.6240001 -0.79100001 -0.44999999 20
9.7629995 -1.363 -0.463 61
17.544001 -2.4319999 -0.249 1
4.4349999 -0.63999999 -0.43099999 22
7.6890001 -1.099 -0.48899999 49
10.009 -1.421 -0.31299999 31
5.6339998 -0.81999999 -0.45100001 19
9.684 -1.401 -0.46000001 56
17.832001 -2.5599999 -0.25400001 6
4.4400001 -0.66299999 -0.43200001 21
7.4520001 -1.104 -0.47400001 48
10.033 -1.475 -0.31400001 49
5.6100001 -0.84500003 -0.449 30
9.2539997 -1.386 -0.44 52
17.608 -2.615 -0.25099999 26
4.4439998 -0.68699998 -0.433 19
7.2509999 -1.11 -0.46200001 55
9.9630003 -1.5140001 -0.31200001 63
5.6719999 -0.884 -0.45500001 19
9.0559998 -1.401 -0.43099999 49
17.663 -2.711 -0.252 7
4.4520001 -0.70999998 -0.43399999 19
6.8520002 -1.0829999 -0.43700001 54
9.9390001 -1.561 -0.31200001 69
5.678 -0.91299999 -0.456 24
8.9540005 -1.4299999 -0.426 48
17.565001 -2.7850001 -0.25099999 1
4.4549999 -0.73299998 -0.435 18
6.6170001 -1.08 -0.42199999 55
9.8570004 -1.597 -0.31 61
5.691 -0.94400001 -0.45699999 24
8.7030001 -1.434 -0.41499999 48
20.402 -3.335 -0.292 2
4.4590001 -0.75700003 -0.43599999 18
6.4200001 -1.08 -0.41 54
9.9370003 -1.659 -0.31299999 48
5.6880002 -0.97299999 -0.45699999 26
8.7159996 -1.48 -0.41600001 49
18.408001 -3.102 -0.264 10
4.4699998 -0.78200001 -0.43700001 18
6.4840002 -1.123 -0.414 57
9.9209995 -1.707 -0.31200001 46
5.5710001 -0.98100001 -0.44800001 62
8.0860004 -1.414 -0.38600001 51
16.667 -2.892 -0.23899999 1
4.4689999 -0.80400002 -0.43799999 19
6.5029998 -1.16 -0.41600001 55
9.8760004 -1.749 -0.31099999 36
5.4959998 -0.99599999 -0.44299999 61
7.0240002 -1.2640001 -0.336 48
19.014 -3.3940001 -0.273 3
4.4689999 -0.82800001 -0.43799999 20
6.4530001 -1.184 -0.41299999 55
9.9259996 -1.807 -0.31299999 22
5.3889999 -1.0039999 -0.435 62
6.8530002 -1.267 -0.32800001 62
17.889999 -3.283 -0.25799999 4
4.4720001 -0.85100001 -0.43900001 19
6.52 -1.229 -0.41800001 58
9.8979998 -1.852 -0.31299999 13
5.2319999 -1.001 -0.42199999 55
6.6760001 -1.2690001 -0.31999999 58
15.549 -2.931 -0.22400001 11
4.48 -0.875 -0.44 18
6.473 -1.253 -0.41600001 61
6.9749999 -1.34 -0.22 0
5.1339998 -1.0089999 -0.41499999 61
6.6040001 -1.288 -0.317 71
15.478 -2.9949999 -0.223 6
4.4840002 -0.89899999 -0.44100001 19
6.3850002 -1.268 -0.41 59
6.947 -1.369 -0.22 6
5.0710001 -1.022 -0.41 55
6.5669999 -1.314 -0.315 61
15.554 -3.0880001 -0.22499999 5
4.4970002 -0.92500001 -0.44299999 17
6.2930002 -1.2819999 -0.405 56
6.9499998 -1.406 -0.22 14
5.0450001 -1.043 -0.40799999 55
6.5419998 -1.342 -0.31400001 62
15.646 -3.1849999 -0.226 7
4.52 -0.95300001 -0.44600001 24
6.0089998 -1.255 -0.38699999 50
6.915 -1.433 -0.219 24
5 -1.059 -0.405 49
6.4759998 -1.362 -0.31200001 62
15.575 -3.2490001 -0.22499999 11
4.487 -0.96899998 -0.44299999 45
5.7839999 -1.237 -0.373 50
6.8210001 -1.448 -0.21699999 12
4.9320002 -1.0700001 -0.40000001 55
6.4650002 -1.392 -0.31099999 65
15.582 -3.329 -0.226 1
4.4229999 -0.97799999 -0.43700001 57
5.7849998 -1.267 -0.373 51
6.4819999 -1.409 -0.206 25
4.7989998 -1.066 -0.38999999 53
6.434 -1.418 -0.31 60
16.535999 -3.6170001 -0.23999999 29
4.3070002 -0.97500002 -0.426 61
5.7030001 -1.278 -0.36899999 58
6.4819999 -1.442 -0.206 48
4.7540002 -1.08 -0.38699999 52
6.4120002 -1.446 -0.30899999 64
15.79 -3.533 -0.229 2
4.2350001 -0.98000002 -0.41999999 60
5.7360001 -1.3150001 -0.37099999 55
6.4689999 -1.471 -0.206 57
4.618 -1.073 -0.37599999 52
6.3990002 -1.476 -0.30899999 65
16.518999 -3.779 -0.23999999 40
4.0999999 -0.97000003 -0.40599999 58
5.369 -1.258 -0.34799999 50
6.4499998 -1.5 -0.205 52
4.5760002 -1.087 -0.373 50
6.0560002 -1.427 -0.29300001 51
16.438 -3.8440001 -0.23800001 55
4.0539999 -0.98000002 -0.40200001 62
5.2719998 -1.262 -0.34200001 52
6.5450001 -1.5549999 -0.20900001 55
4.5840001 -1.112 -0.37400001 55
5.9879999 -1.442 -0.28999999 49
11.657 -2.7850001 -0.169 6
4.0120001 -0.991 -0.39899999 70
5.1729999 -1.266 -0.336 49
6.6040001 -1.603 -0.211 52
4.6279998 -1.147 -0.37799999 57
5.8559999 -1.4400001 -0.28400001 44
6.6729999 -1.628 -0.097000003 2
3.96 -0.99900001 -0.39399999 73
5.105 -1.275 -0.331 51
6.5809999 -1.631 -0.20999999 50
4.5500002 -1.151 -0.37200001 50
5.7909999 -1.4529999 -0.28099999 46
7.9920001 -1.99 -0.116 6
3.9070001 -1.006 -0.389 68
5.0479999 -1.2869999 -0.32800001 70
6.5180001 -1.649 -0.208 52
4.4710002 -1.154 -0.366 51
5.7020001 -1.461 -0.27700001 47
8.0360003 -2.0420001 -0.116 10
3.8570001 -1.013 -0.38499999 60
5.0370002 -1.3099999 -0.32800001 52
6.4390001 -1.661 -0.206 53
4.4699998 -1.177 -0.366 53
5.5780001 -1.457 -0.271 59
8.0010004 -2.073 -0.116 27
3.793 -1.016 -0.37799999 53
5.0120001 -1.329 -0.32600001 61
6.4829998 -1.706 -0.207 53
4.4299998 -1.189 -0.36300001 66
5.6069999 -1.493 -0.27200001 51
8.1230001 -2.1470001 -0.117 39
3.73 -1.018 -0.37200001 62
5.0009999 -1.352 -0.32600001 62
6.5300002 -1.752 -0.20900001 52
4.408 -1.206 -0.36199999 67
5.5359998 -1.503 -0.26899999 48
8.0310001 -2.1630001 -0.116 35
3.7460001 -1.0420001 -0.37400001 55
4.9070001 -1.352 -0.31999999 59
6.553 -1.791 -0.20900001 55
4.3759999 -1.22 -0.359 65
5.3769999 -1.488 -0.26100001 42
6.4889998 -1.781 -0.093000002 0
3.721 -1.0549999 -0.37200001 60
4.7659998 -1.3380001 -0.31099999 46
6.5510001 -1.824 -0.20999999 49
4.3410001 -1.233 -0.35699999 64
5.5009999 -1.55 -0.26699999 42
8.0810003 -2.2590001 -0.116 26
3.734 -1.0779999 -0.37400001 61
4.6339998 -1.325 -0.303 43
6.6170001 -1.877 -0.211 47
4.3309999 -1.253 -0.35600001 63
5.658 -1.624 -0.27500001 56
8.0419998 -2.289 -0.115 0
3.73 -1.096 -0.37400001 63
4.4289999 -1.289 -0.289 50
6.5219998 -1.883 -0.208 45
4.2150002 -1.2410001 -0.347 51
5.3179998 -1.553 -0.259 45
10.161 -2.944 -0.145 51
3.7119999 -1.11 -0.37200001 69
4.408 -1.306 -0.28799999 50
6.131 -1.802 -0.19599999 47
4.2340002 -1.2690001 -0.34900001 60
5.54 -1.647 -0.26899999 53
10.137 -2.99 -0.145 56
3.711 -1.13 -0.373 53
4.4000001 -1.326 -0.28799999 57
6.086 -1.8200001 -0.19400001 45
4.1680002 -1.27 -0.34299999 58
5.553 -1.679 -0.27000001 51
6.5700002 -1.971 -0.093000002 5
3.665 -1.135 -0.368 60
4.506 -1.381 -0.29499999 47
6.0349998 -1.836 -0.192 44
4.0120001 -1.244 -0.331 52
5.6360002 -1.734 -0.27399999 59
6.5349998 -1.994 -0.092 0
3.608 -1.136 -0.36300001 64
4.4580002 -1.39 -0.29100001 50
5.973 -1.847 -0.19 41
3.9719999 -1.252 -0.32800001 58
5.54 -1.733 -0.26899999 53
10.115 -3.1389999 -0.142 61
3.6199999 -1.159 -0.36399999 67
4.4660001 -1.415 -0.292 56
6.6539998 -2.0929999 -0.211 53
3.9430001 -1.2640001 -0.32499999 56
5.3860002 -1.7130001 -0.26199999 50
10.048 -3.1700001 -0.141 55
3.6489999 -1.187 -0.36700001 59
4.52 -1.456 -0.296 40
6.21 -1.985 -0.197 47
3.96 -1.29 -0.32699999 58
5.46 -1.7640001 -0.26499999 52
9.9300003 -3.1830001 -0.138 55
3.585 -1.186 -0.361 62
4.302 -1.408 -0.28099999 44
6.9920001 -2.2709999 -0.222 53
3.878 -1.284 -0.31999999 54
5.5679998 -1.8279999 -0.27000001 55
7.4809999 -2.437 -0.103 1
3.609 -1.212 -0.36399999 64
4.1789999 -1.39 -0.273 49
5.868 -1.936 -0.185 7
3.8670001 -1.3 -0.31900001 52
5.375 -1.793 -0.26100001 52
7.5450001 -2.497 -0.104 1
3.5639999 -1.216 -0.359 58
4.2179999 -1.425 -0.27599999 43
3.845 -1.313 -0.31799999 55
5.533 -1.874 -0.26800001 50
10.681 -3.5899999 -0.146 55
3.323 -1.151 -0.33500001 61
4.2350001 -1.4529999 -0.27700001 42
7.2800002 -2.477 -0.229 60
3.4679999 -1.202 -0.28600001 45
5.4759998 -1.883 -0.26499999 44
10.751 -3.6689999 -0.145 55
3.4849999 -1.226 -0.35100001 70
4.1539998 -1.447 -0.271 39
3.7609999 -1.324 -0.31 62
5.52 -1.927 -0.26699999 46
10.745 -3.7219999 -0.14399999 51
3.483 -1.244 -0.35100001 64
4.2820001 -1.5140001 -0.27900001 47
7.0170002 -2.461 -0.219 52
3.8210001 -1.365 -0.315 56
5.5079999 -1.952 -0.266 53
10.843 -3.812 -0.14399999 57
3.444 -1.248 -0.347 60
4.1900001 -1.503 -0.273 40
7.0139999 -2.4960001 -0.219 46
3.7780001 -1.369 -0.31200001 50
5.4640002 -1.964 -0.26300001 52
10.939 -3.9030001 -0.14399999 57
3.4200001 -1.257 -0.345 64
4.0799999 -1.485 -0.266 43
6.1680002 -2.227 -0.191 47
3.783 -1.391 -0.31200001 57
5.5029998 -2.007 -0.26499999 49
11.057 -4.0019999 -0.14399999 51
3.395 -1.267 -0.34200001 61
4.1020002 -1.515 -0.26699999 40
6.8130002 -2.497 -0.211 57
3.6930001 -1.3789999 -0.30399999 50
5.2969999 -1.964 -0.25400001 54
11.599 -4.2680001 -0.149 57
3.3889999 -1.285 -0.34200001 64
4.2259998 -1.5880001 -0.27500001 46
6.7529998 -2.5190001 -0.208 62
3.648 -1.387 -0.30000001 50
5.0219998 -1.8940001 -0.23999999 49
10.986 -4.1160002 -0.138 53
3.3329999 -1.2869999 -0.336 61
4.0440001 -1.5470001 -0.26199999 39
6.7119999 -2.549 -0.205 61
3.724 -1.441 -0.30599999 52
5.0240002 -1.9299999 -0.23899999 49
6.875 -2.622 -0.085000001 0
3.2950001 -1.295 -0.33199999 54
4.0640001 -1.582 -0.26300001 42
6.6440001 -2.5680001 -0.20100001 55
3.5940001 -1.415 -0.29499999 52
5.0739999 -1.983 -0.241 52
6.9219999 -2.687 -0.082999997 0
3.293 -1.317 -0.331 62
4.2360001 -1.678 -0.27399999 41
5.7199998 -2.25 -0.17200001 43
3.641 -1.4579999 -0.29899999 52
4.9759998 -1.979 -0.235 53
6.901 -2.7249999 -0.081 26
3.2060001 -1.304 -0.322 58
4.0549998 -1.6339999 -0.26100001 39
5.7020001 -2.2809999 -0.17 35
3.517 -1.433 -0.28799999 46
4.9089999 -1.985 -0.23100001 58
6.8530002 -2.7520001 -0.078000002 37
3.1229999 -1.2920001 -0.31400001 61
3.973 -1.628 -0.255 54
5.4159999 -2.2030001 -0.16 50
3.4130001 -1.414 -0.27900001 45
4.3379998 -1.784 -0.20299999 42
6.9429998 -2.836 -0.077 10
3.1270001 -1.3150001 -0.31400001 66
3.9330001 -1.638 -0.252 45
5.4439998 -2.2509999 -0.15899999 44
3.3199999 -1.398 -0.27000001 43
4.2480001 -1.775 -0.197 38
7.0739999 -2.9360001 -0.075999998 27
3.0610001 -1.308 -0.30700001 64
3.882 -1.643 -0.24699999 50
5.191 -2.1819999 -0.15000001 53
3.3269999 -1.424 -0.27000001 47
4.4349999 -1.8839999 -0.205 35
6.7919998 -2.865 -0.071000002 21
3.036 -1.318 -0.303 58
3.612 -1.554 -0.229 45
5.323 -2.2739999 -0.152 42
3.24 -1.408 -0.26300001 44
3.8789999 -1.674 -0.178 38
6.8049998 -2.9170001 -0.068000004 19
2.954 -1.303 -0.29499999 57
3.4960001 -1.527 -0.221 45
5.2719998 -2.2869999 -0.149 34
3.25 -1.4349999 -0.26199999 47
3.7550001 -1.646 -0.171 37
6.802 -2.961 -0.064999998 13
2.8929999 -1.296 -0.28799999 51
3.46 -1.535 -0.21699999 45
4.9920001 -2.2 -0.139 39
3.197 -1.434 -0.257 44
3.9130001 -1.7410001 -0.177 31
6.7589998 -2.9879999 -0.061999999 12
2.858 -1.3 -0.28400001 55
3.434 -1.5470001 -0.214 49
5.1030002 -2.283 -0.14 56
3.2539999 -1.4809999 -0.26100001 48
3.826 -1.729 -0.171 43
5.1479998 -2.3110001 -0.044 0
2.9579999 -1.3660001 -0.29300001 50
3.3429999 -1.529 -0.207 51
5.0359998 -2.286 -0.13600001 47
3.2130001 -1.484 -0.25600001 63
3.6159999 -1.658 -0.16 38
5.1430001 -2.3429999 -0.041999999 3
2.937 -1.376 -0.28999999 58
3.3399999 -1.55 -0.206 47
3.352 -1.545 -0.088 1
3.1860001 -1.494 -0.25299999 55
3.398 -1.581 -0.149 35
6.8390002 -3.161 -0.052000001 11
2.951 -1.402 -0.28999999 58
3.2880001 -1.548 -0.20100001 48
5.1059999 -2.3870001 -0.132 49
3.1760001 -1.51 -0.25099999 60
3.345 -1.579 -0.145 47
5.1269999 -2.404 -0.035999998 7
2.8840001 -1.39 -0.28200001 48
3.2690001 -1.561 -0.199 47
3.3629999 -1.595 -0.085000001 8
3.1960001 -1.541 -0.25099999 45
3.3610001 -1.609 -0.14399999 41
3.3080001 -1.573 -0.021 1
2.9389999 -1.436 -0.287 56
3.2869999 -1.591 -0.198 57
3.322 -1.598 -0.082000002 20
3.1860001 -1.558 -0.249 56
3.2639999 -1.584 -0.138 45
5.066 -2.4430001 -0.028999999 2
2.9059999 -1.4400001 -0.28200001 44
3.2449999 -1.5930001 -0.19400001 44
3.3529999 -1.635 -0.081 31
3.141 -1.557 -0.244 47
3.2739999 -1.6109999 -0.13699999 36
2.8989999 -1.456 -0.28 48
3.2130001 -1.599 -0.19 67
3.141 -1.5779999 -0.242 49
3.25 -1.6210001 -0.134 49
6.5300002 -3.2360001 -0.028999999 89
2.96 -1.506 -0.285 64
3.197 -1.612 -0.18700001 53
3.303 -1.654 -0.075000003 31
3.1229999 -1.589 -0.23899999 56
3.2260001 -1.63 -0.131 49
6.506 -3.267 -0.025 67
2.5569999 -1.318 -0.244 37
3.1800001 -1.624 -0.184 52
3.2460001 -1.647 -0.071999997 38
3.122 -1.609 -0.237 46
3.2219999 -1.649 -0.12800001 46
6.4689999 -3.2909999 -0.018999999 55
2.9130001 -1.521 -0.27700001 44
3.191 -1.651 -0.183 49
3.2909999 -1.691 -0.071000002 26
3.108 -1.623 -0.234 53
3.2130001 -1.666 -0.126 44
6.8000002 -3.5039999 -0.015 4
2.5380001 -1.342 -0.23999999 47
3.175 -1.663 -0.18000001 54
3.346 -1.7410001 -0.068999998 4
3.1210001 -1.65 -0.233 54
3.197 -1.678 -0.123 47
6.493 -3.388 -0.0089999996 1
2.9649999 -1.587 -0.278 46
3.1570001 -1.674 -0.177 56
3.2320001 -1.7029999 -0.064000003 21
2.983 -1.596 -0.221 39
3.2049999 -1.7029999 -0.12 37
8.4429998 -4.461 -0.0049999999 13
2.5150001 -1.362 -0.234 48
3.1630001 -1.698 -0.175 47
3.385 -1.806 -0.064999998 1
3.069 -1.6619999 -0.22499999 45
3.2479999 -1.747 -0.119 38
9.9560003 -5.3239999 0.0020000001 37
2.5079999 -1.374 -0.23199999 44
3.1170001 -1.693 -0.17 45
3.2939999 -1.779 -0.059999999 2
3.0420001 -1.6670001 -0.221 40
3.2720001 -1.781 -0.118 37
9.2220001 -4.9910002 0.0099999998 33
2.4679999 -1.368 -0.226 42
3.1110001 -1.709 -0.167 41
5.855 -3.198 -0.101 46
3.086 -1.711 -0.221 56
3.2 -1.762 -0.112 38
6.303 -3.451 0.013 1
2.441 -1.369 -0.222 48
3.154 -1.753 -0.16599999 41
5.8759999 -3.247 -0.096000001 39
2.4949999 -1.398 -0.177 37
3.2030001 -1.783 -0.109 32
8.3129997 -4.6040001 0.026000001 41
2.3789999 -1.349 -0.214 47
3.119 -1.7539999 -0.161 42
3.3870001 -1.893 -0.052000001 1
2.49 -1.411 -0.17399999 34
8.3039999 -4.652 0.035 41
2.3310001 -1.336 -0.208 53
3.112 -1.7690001 -0.15800001 44
5.8629999 -3.313 -0.083999999 35
2.628 -1.506 -0.18099999 31
3.197 -1.8200001 -0.103 34
8.0229998 -4.5440001 0.043000001 44
2.319 -1.344 -0.204 57
2.9949999 -1.721 -0.149 39
5.4829998 -3.1329999 -0.072999999 35
2.427 -1.405 -0.16500001 31
6.223 -3.563 0.039999999 10
2.2939999 -1.3430001 -0.2 61
2.878 -1.671 -0.14 31
5.756 -3.3239999 -0.07 38
2.53 -1.4809999 -0.169 32
3.6889999 -2.1459999 -0.111 29
8.302 -4.8049998 0.063000001 40
2.302 -1.3609999 -0.198 57
3.086 -1.8099999 -0.147 39
5.8150001 -3.392 -0.064000003 37
2.418 -1.429 -0.15899999 38
3.1530001 -1.853 -0.090999998 10
8.3109999 -4.8600001 0.072999999 26
2.303 -1.375 -0.19599999 55
3.066 -1.817 -0.14300001 38
5.7199998 -3.372 -0.056000002 35
2.5439999 -1.5190001 -0.16500001 41
3.1500001 -1.869 -0.086999997 4
7.8600001 -4.6430001 0.079000004 20
2.329 -1.405 -0.19599999 50
3.0550001 -1.8279999 -0.139 26
5.7919998 -3.448 -0.048999999 36
2.523 -1.521 -0.161 33
3.267 -1.9579999 -0.086000003 1
7.7969999 -4.652 0.089000002 43
2.273 -1.3839999 -0.18799999 43
3.165 -1.9119999 -0.14 28
5.8200002 -3.4979999 -0.041999999 14
2.539 -1.545 -0.15899999 30
5.0799999 -3.0739999 -0.12800001 40
7.7360001 -4.6609998 0.097999997 22
2.4000001 -1.475 -0.19599999 47
2.846 -1.7359999 -0.122 22
5.6110001 -3.405 -0.033 1
2.4690001 -1.516 -0.15099999 35
5.1139998 -3.1229999 -0.123 44
7.9499998 -4.835 0.112 16
3.0510001 -1.878 -0.127 23
5.7020001 -3.4920001 -0.026000001 1
2.418 -1.498 -0.145 40
4.96 -3.0569999 -0.112 39
9.3039999 -5.7119999 0.14399999 9
2.335 -1.46 -0.185 48
2.668 -1.656 -0.108 22
5.678 -3.5090001 -0.017999999 0
2.4760001 -1.5470001 -0.145 32
5 -3.109 -0.106 35
8.4390001 -5.2270002 0.14300001 24
2.3010001 -1.451 -0.17900001 47
3.4860001 -2.1830001 -0.13600001 26
5.8200002 -3.6289999 -0.0099999998 0
2.4549999 -1.5470001 -0.141 32
5.1129999 -3.207 -0.101 34
8.4790001 -5.2979999 0.156 27
2.2750001 -1.447 -0.17399999 46
3.3940001 -2.1440001 -0.127 31
7.6399999 -4.8049998 -0.0020000001 26
2.401 -1.526 -0.134 29
5.085 -3.2160001 -0.093000002 32
8.3459997 -5.2600002 0.167 0
4.1069999 -2.615 -0.148 32
2.4460001 -1.567 -0.133 29
4.8499999 -3.092 -0.081 37
10.987 -6.9819999 0.237 19
4.1799998 -2.6830001 -0.145 33
7.625 -4.875 0.021 14
2.5120001 -1.622 -0.133 23
4.8660002 -3.1270001 -0.074000001 35
11.004 -7.0489998 0.25600001 1
2.1500001 -1.4 -0.155 46
4.2649999 -2.7579999 -0.141 33
8.2620001 -5.323 0.035999998 5
2.3599999 -1.535 -0.121 33
5.1810002 -3.355 -0.071000002 33
11.038 -7.1269999 0.27500001 6
2.2950001 -1.505 -0.162 30
4.2849998 -2.7920001 -0.13500001 31
7.0229998 -4.559 0.041999999 5
2.3710001 -1.553 -0.118 33
4.8410001 -3.158 -0.057999998 31
4.842 -3.1500001 0.12800001 5
2.2420001 -1.48 -0.155 40
4.086 -2.681 -0.122 34
7.0079999 -4.5830002 0.054000001 14
2.437 -1.607 -0.117 23
4.9000001 -3.2190001 -0.050999999 28
5.0310001 -3.2969999 0.142 9
2.2090001 -1.4680001 -0.149 33
2.4030001 -1.5880001 -0.067000002 1
4.7379999 -3.1199999 0.044 0
2.431 -1.614 -0.113 23
4.8579998 -3.2130001 -0.041999999 33
4.7989998 -3.1670001 0.14399999 1
2.273 -1.52 -0.149 28
4.4050002 -2.9289999 -0.117 29
4.7729998 -3.165 0.052999999 17
2.3670001 -1.581 -0.106 26
4.8210001 -3.21 -0.033 30
4.7639999 -3.165 0.152 20
2.267 -1.525 -0.145 36
2.2980001 -1.5369999 -0.056000002 1
4.9089999 -3.276 0.063000001 29
4.8699999 -3.263 -0.025 31
4.9380002 -3.303 0.167 4
2.266 -1.533 -0.141 45
2.296 -1.546 -0.052000001 0
4.7589998 -3.1960001 0.07 22
2.3429999 -1.584 -0.097000003 0
5.0250001 -3.3870001 -0.016000001 27
4.8010001 -3.2309999 0.171 2
2.2539999 -1.534 -0.13600001 35
4.4219999 -2.994 -0.093000002 30
4.8260002 -3.26 0.079999998 8
2.3670001 -1.61 -0.093000002 25
4.803 -3.256 -0.0070000002 26
4.7649999 -3.2260001 0.17900001 8
2.2809999 -1.5599999 -0.134 35
4.6950002 -3.1960001 -0.090000004 38
4.7140002 -3.2030001 0.086999997 14
4.7940001 -3.2679999 0.001 7
4.73 -3.221 0.18700001 27
2.2869999 -1.572 -0.13 44
4.5560002 -3.118 -0.079000004 31
4.7140002 -3.221 0.097000003 6
2.3510001 -1.615 -0.083999999 1
4.9369998 -3.3829999 0.011 6
4.7540002 -3.2550001 0.197 42
2.3110001 -1.596 -0.127 33
4.8060002 -3.3050001 -0.074000001 32
4.7010002 -3.2279999 0.105 5
2.4219999 -1.671 -0.082000002 28
4.9369998 -3.4000001 0.021 0
4.7259998 -3.2520001 0.206 18
2.3050001 -1.598 -0.122 42
4.7459998 -3.279 -0.064000003 33
4.691 -3.237 0.115 0
2.3610001 -1.636 -0.075000003 5
4.8299999 -3.3410001 0.029999999 0
4.6570001 -3.221 0.212 0
2.3640001 -1.646 -0.121 40
4.7779999 -3.3150001 -0.055 32
4.677 -3.2420001 0.124 0
7.566 -5.257 0.061999999 39
7.2459998 -5.0349998 0.345 38
2.3299999 -1.6289999 -0.114 34
4.7600002 -3.316 -0.045000002 39
7.1869998 -5.0029998 0.205 24
2.3840001 -1.665 -0.066 3
7.6240001 -5.3189998 0.078000002 21
7.25 -5.059 0.361 40
2.2939999 -1.609 -0.108 30
4.7909999 -3.3499999 -0.035999998 32
7.237 -5.0580001 0.222 25
2.286 -1.602 -0.059 1
7.473 -5.2329998 0.092 26
7.3790002 -5.1700001 0.38299999 30
2.3310001 -1.64 -0.105 30
4.8860002 -3.428 -0.026000001 34
7.2280002 -5.0710001 0.237 25
2.2709999 -1.597 -0.054000001 1
4.8070002 -3.3770001 0.068999998 3
7.1009998 -4.994 0.384 16
2.2490001 -1.587 -0.097000003 25
4.9569998 -3.4890001 -0.016000001 22
7.2740002 -5.1209998 0.25400001 26
4.1690001 -2.9400001 -0.090999998 30
4.8049998 -3.3870001 0.079000004 18
7.0359998 -4.9650002 0.39500001 25
2.1949999 -1.553 -0.090000004 20
4.9829998 -3.517 -0.0060000001 9
7.191 -5.0780001 0.266 26
4.4629998 -3.155 -0.088 35
4.8189998 -3.4059999 0.090000004 9
7.151 -5.0619998 0.417 24
2.141 -1.518 -0.082999997 32
4.9549999 -3.506 0.0040000002 10
7.0939999 -5.0229998 0.278 38
4.6570001 -3.3 -0.082000002 32
5.0180001 -3.556 0.104 0
7.2360001 -5.1370001 0.43799999 24
4.8889999 -3.467 0.014 13
7.098 -5.0380001 0.29300001 27
4.6750002 -3.319 -0.071999997 28
5.1469998 -3.655 0.118 0
7.335 -5.2199998 0.46000001 14
4.8070002 -3.4159999 0.024 11
5.112 -3.6370001 0.222 0
4.7379999 -3.369 -0.063000001 31
7.1110001 -5.0599999 0.17900001 33
8.1239996 -5.7940001 0.528 6
2.3329999 -1.6619999 -0.075000003 7
4.8429999 -3.4460001 0.035 18
5.1389999 -3.6630001 0.235 6
4.7550001 -3.3859999 -0.052999999 31
7.1129999 -5.0700002 0.19499999 32
7.776 -5.5570002 0.52200001 8
2.345 -1.6720001 -0.071000002 9
4.8730001 -3.4719999 0.046 30
5.1490002 -3.6760001 0.24699999 8
4.7659998 -3.3959999 -0.043000001 31
7.1160002 -5.0780001 0.20999999 8
7.5190001 -5.382 0.52200001 19
2.325 -1.659 -0.064999998 8
4.9169998 -3.507 0.057 33
5.1469998 -3.678 0.25799999 8
4.8200002 -3.438 -0.033 28
8.1090002 -5.7919998 0.25799999 32
7.3649998 -5.2779999 0.52700001 21
2.3269999 -1.661 -0.059999999 9
4.9899998 -3.5610001 0.068999998 31
5.138 -3.6760001 0.26899999 5
4.7329998 -3.3770001 -0.022 29
8.1630001 -5.8340001 0.27700001 34
7.1620002 -5.138 0.52899998 26
2.323 -1.658 -0.055 9
5.0739999 -3.622 0.081 29
5.1339998 -3.675 0.28 0
4.8060002 -3.4289999 -0.012 30
8.0600004 -5.763 0.29100001 31
7.1040001 -5.099 0.54000002 34
2.3180001 -1.654 -0.050000001 4
5.1529999 -3.6789999 0.093000002 23
5.1409998 -3.6819999 0.292 0
4.8520002 -3.461 -0.001 26
7.9780002 -5.704 0.30599999 31
7.0760002 -5.0809999 0.55400002 30
4.652 -3.3180001 -0.090000004 39
5.1589999 -3.6819999 0.105 18
5.1469998 -3.6849999 0.303 0
4.888 -3.484 0.0089999996 26
7.8920002 -5.6409998 0.31999999 27
7.0489998 -5.0619998 0.56800002 33
4.6880002 -3.3410001 -0.079999998 42
5.1550002 -3.677 0.116 6
7.7220001 -5.5279999 0.472 22
4.8340001 -3.4430001 0.018999999 9
7.5570002 -5.3979998 0.322 29
7.0760002 -5.0799999 0.58499998 38
4.7249999 -3.3629999 -0.071000002 38
7.289 -5.1939998 0.18000001 48
7.6539998 -5.4749999 0.48500001 18
4.8249998 -3.4319999 0.028999999 11
5.1440001 -3.671 0.23100001 3
7.1609998 -5.1370001 0.60799998 27
4.7639999 -3.385 -0.061000001 36
7.1199999 -5.0669999 0.191 41
7.6960001 -5.5 0.50400001 12
4.9439998 -3.5109999 0.041000001 19
5.1620002 -3.6789999 0.242 11
7.402 -5.3049998 0.64499998 25
4.8119998 -3.4130001 -0.050999999 38
7.1160002 -5.0560002 0.206 44
7.8319998 -5.5900002 0.52999997 23
4.875 -3.4560001 0.050999999 15
5.1469998 -3.6630001 0.25299999 33
7.2950001 -5.2220001 0.65100002 32
4.8460002 -3.4300001 -0.041000001 37
7.1560001 -5.0749998 0.223 43
7.1370001 -5.085 0.498 29
4.915 -3.477 0.061999999 6
5.1409998 -3.652 0.26300001 21
7.1469998 -5.1069999 0.653 50
4.9089999 -3.4660001 -0.032000002 32
7.1570001 -5.0650001 0.23800001 42
7.1230001 -5.066 0.51200002 40
4.822 -3.4030001 0.071000002 24
5.1300001 -3.6359999 0.27399999 0
6.1350002 -4.3759999 0.57300001 8
4.9549999 -3.4879999 -0.021 23
7.474 -5.276 0.264 35
7.085 -5.0279999 0.52399999 49
4.822 -3.3940001 0.081 13
7.027 -4.9689999 0.38999999 27
7.2690001 -5.1739998 0.69499999 23
4.9130001 -3.448 -0.011 39
7.1279998 -5.0170002 0.266 35
7.1020002 -5.027 0.54000002 51
4.803 -3.3699999 0.090000004 1
7.0409999 -4.9640002 0.405 48
7.1259999 -5.059 0.69599998 39
5.2690001 -3.6849999 -0.001 28
7.072 -4.9629998 0.27900001 12
7.2449999 -5.1129999 0.56599998 43
7.7189999 -5.3969998 0.161 32
7.066 -4.9660001 0.421 44
7.1030002 -5.0279999 0.708 47
5.0300002 -3.5050001 0.0089999996 31
7.1040001 -4.967 0.29499999 30
7.2690001 -5.1149998 0.58200002 31
7.6059999 -5.2989998 0.17399999 30
7.0609999 -4.9450002 0.43399999 32
7.1139998 -5.02 0.72299999 48
4.8319998 -3.3529999 0.017999999 4
8.1309996 -5.665 0.35299999 44
7.2480001 -5.0819998 0.59500003 27
4.678 -3.2449999 0.116 0
7.1209998 -4.9689999 0.45199999 34
7.125 -5.0100002 0.73900002 43
4.803 -3.319 0.027000001 0
7.2950001 -5.0619998 0.331 45
7.1929998 -5.0240002 0.60399997 8
7.2979999 -5.0419998 0.19599999 27
7.2449999 -5.0359998 0.47400001 50
7.164 -5.0190001 0.75700003 34
7.5760002 -5.211 0.057999998 49
4.698 -3.2449999 0.222 0
7.6700001 -5.335 0.66000003 6
7.619 -5.2399998 0.219 48
7.4619999 -5.164 0.50300002 37
7.2329998 -5.046 0.778 23
4.8860002 -3.345 0.046999998 0
4.6799998 -3.2179999 0.23 32
7.3579998 -5.0960002 0.64700001 4
7.6170001 -5.2119999 0.234 28
7.5050001 -5.1690001 0.51999998 32
7.2600002 -5.0430002 0.79400003 4
4.7340002 -3.224 0.054000001 11
4.7030001 -3.2179999 0.23999999 13
7.2480001 -4.9959998 0.64999998 11
4.7729998 -3.25 0.155 8
7.526 -5.1589999 0.53500003 7
7.3540001 -5.085 0.81800002 0
4.7329998 -3.2049999 0.063000001 0
4.6950002 -3.1960001 0.248 11
7.4559999 -5.1139998 0.68300003 7
4.7399998 -3.21 0.163 7
7.7470002 -5.2820001 0.565 1
11.366 -7.8200002 1.284 22
4.835 -3.256 0.072999999 18
8.2399998 -5.579 0.45100001 26
7.5139999 -5.1269999 0.70099998 10
4.7789998 -3.2179999 0.17299999 0
7.73 -5.2420001 0.57700002 1
11.345 -7.7639999 1.303 22
4.8039999 -3.2160001 0.082000002 8
8.2279997 -5.539 0.465 4
7.5289998 -5.1079998 0.71499997 1
4.8280001 -3.2309999 0.183 0
7.7750001 -5.2420001 0.59399998 11
11.513 -7.835 1.341 20
4.7859998 -3.1830001 0.090000004 38
8.2749996 -5.5359998 0.48199999 2
8.3319998 -5.6199999 0.80599999 2
4.9720001 -3.3069999 0.197 17
7.7210002 -5.1739998 0.60299999 18
11.594 -7.8439999 1.369 22
4.9640002 -3.2809999 0.102 10
8.283 -5.507 0.49599999 9
8.415 -5.6420002 0.82800001 2
4.8889999 -3.23 0.20200001 19
7.6960001 -5.1240001 0.61299998 2
11.61 -7.8070002 1.391 20
4.8930001 -3.211 0.108 10
8.2910004 -5.4759998 0.50999999 1
8.4619999 -5.6370001 0.84600002 1
4.848 -3.181 0.208 2
11.591 -7.6669998 0.94199997 26
