# .PCD v0.7 - Point Cloud Data file format
VERSION 0.7
FIELDS x y z intensity
SIZE 4 4 4 4
TYPE F F F F
COUNT 1 1 1 1
WIDTH 1561
HEIGHT 1
VIEWPOINT 0 0 0 1 0 0 0
POINTS 1561
DATA ascii
5.6589999 1.313 -0.94099998 12
3.5639999 0.84299999 -0.77999997 9
4.7880001 1.107 -0.87800002 10
6.7750001 1.536 -1.002 15
3.1429999 0.73900002 -0.74699998 14
4.1739998 0.958 -0.83700001 8
5.6859999 1.277 -0.94199997 11
3.579 0.81999999 -0.78100002 10
4.8070002 1.076 -0.87900001 10
6.7719998 1.4859999 -0.99900001 15
3.1500001 0.71600002 -0.74599999 13
4.2030001 0.93300003 -0.83999997 8
5.717 1.243 -0.94499999 11
3.6029999 0.79799998 -0.78399998 10
4.8340001 1.046 -0.88099998 10
6.7859998 1.4400001 -0.99800003 16
3.1670001 0.69599998 -0.74800003 13
4.2290001 0.90700001 -0.84299999 8
5.75 1.2079999 -0.94800001 11
3.612 0.773 -0.78399998 9
4.8590002 1.016 -0.88300002 10
6.7909999 1.392 -0.99599999 19
3.1830001 0.676 -0.75 13
4.2470002 0.88 -0.84399998 9
5.783 1.173 -0.94999999 13
3.635 0.75099999 -0.787 10
4.8740001 0.98299998 -0.884 10
6.7969999 1.344 -0.99400002 11
3.198 0.65499997 -0.75199997 14
4.2639999 0.852 -0.84600002 10
5.8210001 1.1390001 -0.954 13
3.6389999 0.72500002 -0.78500003 10
4.8899999 0.95099998 -0.884 11
6.7989998 1.296 -0.991 6
3.2090001 0.63300002 -0.75199997 15
4.2820001 0.824 -0.847 9
5.8509998 1.102 -0.95700002 12
3.6530001 0.69999999 -0.787 11
4.9089999 0.91900003 -0.88599998 11
6.8390002 1.255 -0.995 7
3.2279999 0.61299998 -0.755 14
4.2940001 0.79500002 -0.847 10
5.8790002 1.0650001 -0.95899999 12
3.675 0.67799997 -0.79000002 10
4.941 0.889 -0.889 11
7.1030002 1.252 -1.03 6
3.2279999 0.58899999 -0.75300002 14
4.3150001 0.76800001 -0.85000002 10
5.9250002 1.031 -0.96399999 14
3.6900001 0.653 -0.79100001 11
4.9489999 0.85500002 -0.889 12
6.9569998 1.177 -1.007 8
3.2379999 0.56599998 -0.75400001 14
4.3330002 0.73900002 -0.85100001 10
5.9390001 0.991 -0.96399999 13
3.6960001 0.62699997 -0.79000002 10
4.9689999 0.82300001 -0.88999999 12
7.323 1.188 -1.057 7
3.2520001 0.54500002 -0.755 16
4.3590002 0.71200001 -0.85399997 10
5.9460001 0.94999999 -0.963 12
3.71 0.602 -0.792 10
4.9829998 0.78899997 -0.89099997 11
7.4369998 1.153 -1.071 7
3.2639999 0.523 -0.75700003 16
4.3779998 0.68400002 -0.85600001 9
5.9660001 0.91100001 -0.96399999 12
3.7130001 0.57599998 -0.79100001 10
5.0029998 0.75599998 -0.89200002 12
7.5250001 1.114 -1.081 7
3.2780001 0.50099999 -0.75800002 13
4.381 0.65200001 -0.85500002 10
5.9809999 0.87 -0.96399999 12
3.737 0.55199999 -0.79400003 11
5.0190001 0.72299999 -0.89300001 12
7.5240002 1.061 -1.079 7
3.293 0.479 -0.75999999 16
4.4000001 0.62300003 -0.85699999 12
6.0139999 0.83200002 -0.96799999 12
3.7449999 0.52600002 -0.79400003 11
5.0289998 0.68900001 -0.89300001 13
7.6090002 1.0190001 -1.089 7
3.2980001 0.456 -0.75999999 15
4.4000001 0.59200001 -0.85600001 14
6.026 0.792 -0.96799999 13
3.7590001 0.50099999 -0.796 12
5.0510001 0.65499997 -0.89600003 13
7.6300001 0.96899998 -1.09 8
3.302 0.43200001 -0.75999999 15
4.4130001 0.56199998 -0.85699999 12
6.0580001 0.75300002 -0.97100002 13
3.7690001 0.47499999 -0.796 12
5.0640001 0.62099999 -0.89600003 14
7.592 0.91100001 -1.082 10
3.3099999 0.40900001 -0.75999999 16
4.4310002 0.53200001 -0.85799998 14
6.0840001 0.713 -0.97299999 13
3.7739999 0.449 -0.796 12
5.0739999 0.58700001 -0.89700001 14
7.6360002 0.86299998 -1.087 10
3.316 0.38499999 -0.75999999 15
4.4390001 0.50199997 -0.85900003 13
6.112 0.67400002 -0.97600001 15
3.7920001 0.42300001 -0.79900002 13
5.0929999 0.55299997 -0.898 14
7.6900001 0.815 -1.092 9
3.326 0.36300001 -0.76099998 16
4.4520001 0.47099999 -0.86000001 18
6.1440001 0.634 -0.98000002 14
3.799 0.39700001 -0.79900002 13
5.0970001 0.51700002 -0.898 14
7.7030001 0.764 -1.092 9
3.332 0.33899999 -0.76200002 14
4.4640002 0.44100001 -0.861 18
6.1789999 0.59500003 -0.98400003 14
3.8210001 0.37200001 -0.80299997 15
5.1259999 0.484 -0.90200001 13
7.7210002 0.71200001 -1.0930001 10
3.3380001 0.31600001 -0.76200002 15
4.46 0.40900001 -0.85900003 15
6.1939998 0.55299997 -0.98500001 14
3.8329999 0.345 -0.80400002 13
5.1350002 0.449 -0.90200001 13
7.7529998 0.66100001 -1.096 9
3.3440001 0.292 -0.76200002 16
4.4699998 0.37799999 -0.86000001 17
6.211 0.51099998 -0.986 14
3.8429999 0.31900001 -0.80500001 14
5.1500001 0.414 -0.903 14
7.7649999 0.60799998 -1.096 10
3.359 0.26899999 -0.76499999 15
4.474 0.347 -0.86000001 18
6.2189999 0.46799999 -0.986 14
3.845 0.292 -0.80500001 13
5.1760001 0.38 -0.90700001 15
7.7880001 0.55599999 -1.098 10
3.3559999 0.245 -0.76300001 16
4.48 0.31600001 -0.86000001 18
6.2459998 0.42699999 -0.99000001 14
3.8540001 0.26499999 -0.80599999 13
5.1919999 0.34400001 -0.90899998 16
7.809 0.50400001 -1.1 10
3.362 0.221 -0.764 16
4.487 0.285 -0.86000001 20
6.2459998 0.384 -0.98900002 15
3.8540001 0.23800001 -0.80500001 14
5.2179999 0.31 -0.912 16
7.8099999 0.44999999 -1.099 11
3.3659999 0.197 -0.764 16
4.4990001 0.25400001 -0.86199999 18
6.256 0.34099999 -0.98900002 15
3.862 0.20999999 -0.80599999 13
5.2350001 0.27399999 -0.91500002 16
7.8639998 0.39899999 -1.1059999 11
3.3740001 0.17299999 -0.76499999 17
4.4899998 0.221 -0.85900003 17
6.2729998 0.29800001 -0.991 15
3.8610001 0.183 -0.80500001 13
5.2449999 0.23800001 -0.91600001 17
7.8899999 0.34599999 -1.108 11
3.382 0.149 -0.76700002 19
4.5029998 0.19 -0.861 21
6.2950001 0.25600001 -0.99400002 16
3.865 0.156 -0.80500001 16
5.25 0.20200001 -0.91600001 15
7.8959999 0.292 -1.108 11
3.3870001 0.125 -0.76700002 15
4.506 0.15899999 -0.861 18
6.303 0.212 -0.99400002 15
3.8729999 0.12899999 -0.80699998 14
5.2589998 0.16500001 -0.917 15
7.941 0.23899999 -1.114 11
3.3800001 0.101 -0.76499999 18
4.5079999 0.127 -0.861 19
6.3140001 0.169 -0.99599999 16
3.8729999 0.101 -0.80599999 14
5.2729998 0.12899999 -0.91900003 15
7.9439998 0.185 -1.114 11
3.388 0.077 -0.76700002 16
4.506 0.094999999 -0.86000001 17
6.3179998 0.125 -0.99599999 17
3.8759999 0.074000001 -0.80599999 14
5.2779999 0.092 -0.92000002 15
7.9429998 0.13 -1.113 11
3.3859999 0.052999999 -0.76599997 16
4.5079999 0.064000003 -0.86000001 18
6.3299999 0.082000002 -0.99699998 17
3.8740001 0.046 -0.80599999 14
5.2880001 0.056000002 -0.921 15
7.96 0.075999998 -1.115 11
3.3900001 0.028999999 -0.76700002 16
4.5149999 0.032000002 -0.86199999 18
6.3410001 0.037999999 -0.99900001 15
3.875 0.018999999 -0.80599999 13
5.283 0.018999999 -0.92000002 15
8.0080004 0.021 -1.122 13
3.3870001 0.0040000002 -0.76599997 17
4.5149999 0.001 -0.86199999 16
6.3260002 -0.0049999999 -0.99699998 16
3.868 -0.0070000002 -0.80400002 14
5.2849998 -0.017000001 -0.92000002 15
8.0030003 -0.033 -1.1210001 11
3.3870001 -0.018999999 -0.76599997 15
4.5120001 -0.029999999 -0.861 17
6.3319998 -0.048 -0.99699998 17
3.8789999 -0.035 -0.80699998 14
5.2880001 -0.054000001 -0.921 15
7.9899998 -0.088 -1.119 11
3.3870001 -0.043000001 -0.76599997 15
4.52 -0.061000001 -0.86299998 18
6.3449998 -0.092 -0.99900001 17
3.875 -0.061999999 -0.80599999 13
5.2950001 -0.090000004 -0.92199999 16
8.0480003 -0.142 -1.128 11
3.381 -0.067000002 -0.76499999 16
4.5180001 -0.093000002 -0.86199999 19
6.3540001 -0.13600001 -1.001 17
3.872 -0.089000002 -0.80500001 14
5.303 -0.127 -0.92400002 17
8.0559998 -0.198 -1.1289999 12
3.3840001 -0.090999998 -0.76599997 15
4.5139999 -0.125 -0.86199999 17
6.3559999 -0.18000001 -1.002 17
3.8699999 -0.117 -0.80500001 14
5.2930002 -0.164 -0.92199999 18
8.0600004 -0.25299999 -1.13 12
3.385 -0.115 -0.76599997 15
4.5159998 -0.156 -0.86299998 19
6.3720002 -0.22400001 -1.005 17
3.8740001 -0.14399999 -0.80599999 14
5.2919998 -0.20100001 -0.92299998 17
8.0649996 -0.30899999 -1.131 13
3.391 -0.14 -0.76800001 16
4.5219998 -0.189 -0.86400002 21
6.3699999 -0.26800001 -1.005 17
3.8740001 -0.17200001 -0.80699998 13
5.2919998 -0.23800001 -0.92299998 19
8.066 -0.36500001 -1.132 12
3.388 -0.164 -0.76800001 15
4.5100002 -0.22 -0.86199999 20
6.362 -0.31200001 -1.0039999 17
3.8699999 -0.199 -0.80699998 14
5.2839999 -0.27399999 -0.92199999 19
8.0570002 -0.419 -1.131 13
3.3940001 -0.18799999 -0.76999998 16
4.5120001 -0.252 -0.86299998 21
6.368 -0.35699999 -1.006 17
3.8670001 -0.226 -0.80599999 15
5.2750001 -0.31099999 -0.921 18
8.0369997 -0.47400001 -1.13 12
3.4000001 -0.213 -0.77200001 17
4.5089998 -0.28299999 -0.86299998 21
6.3559999 -0.40000001 -1.005 17
3.862 -0.25400001 -0.80599999 14
5.2680001 -0.347 -0.921 17
8.033 -0.52899998 -1.13 12
3.408 -0.23800001 -0.77399999 16
4.5050001 -0.315 -0.86299998 23
6.3590002 -0.44400001 -1.006 16
3.852 -0.28 -0.80500001 14
5.256 -0.38299999 -0.92000002 18
8.0299997 -0.58399999 -1.131 13
3.414 -0.26300001 -0.77600002 20
4.4980001 -0.34599999 -0.86299998 21
6.349 -0.48800001 -1.006 16
3.8429999 -0.30700001 -0.80400002 13
5.2470002 -0.41999999 -0.91900003 18
8.0419998 -0.64099997 -1.1339999 11
3.4159999 -0.28799999 -0.77700001 18
4.4910002 -0.377 -0.86199999 20
6.3470001 -0.53200001 -1.006 17
3.842 -0.33399999 -0.80400002 13
5.2389998 -0.456 -0.91900003 16
8.073 -0.699 -1.1390001 11
3.4059999 -0.31200001 -0.77600002 17
4.4850001 -0.40900001 -0.86199999 20
6.3249998 -0.574 -1.0039999 17
3.8280001 -0.361 -0.80199999 14
5.2350001 -0.49200001 -0.91900003 18
8.1169996 -0.759 -1.147 10
3.395 -0.33500001 -0.77399999 16
4.4840002 -0.44 -0.86299998 20
6.3239999 -0.61799997 -1.005 17
3.8239999 -0.38800001 -0.80199999 14
5.223 -0.528 -0.91799998 17
8.1689997 -0.82099998 -1.156 10
3.375 -0.35800001 -0.77100003 15
4.4819999 -0.472 -0.86400002 22
6.3039999 -0.66000003 -1.003 18
3.8150001 -0.414 -0.80199999 14
5.217 -0.56400001 -0.91799998 18
8.3809996 -0.89999998 -1.188 13
3.358 -0.38 -0.76800001 15
4.4619999 -0.50199997 -0.861 17
6.2919998 -0.70300001 -1.003 17
3.8139999 -0.44100001 -0.80199999 14
5.2090001 -0.60000002 -0.91799998 16
8.2799997 -0.94700003 -1.175 12
3.3440001 -0.403 -0.76599997 16
4.4569998 -0.53299999 -0.86199999 17
6.2800002 -0.74599999 -1.003 15
3.7980001 -0.46700001 -0.80000001 14
5.198 -0.63599998 -0.91799998 16
8.1990004 -0.995 -1.166 12
3.3340001 -0.426 -0.76499999 14
4.4450002 -0.56300002 -0.861 16
6.2849998 -0.79100001 -1.005 13
3.783 -0.49200001 -0.79799998 12
5.1859999 -0.671 -0.917 15
8.1160002 -1.0420001 -1.156 13
3.312 -0.447 -0.76099998 13
4.4400001 -0.59399998 -0.861 17
6.309 -0.83899999 -1.011 11
3.777 -0.51899999 -0.79900002 12
5.1760001 -0.70700002 -0.917 14
8.0340004 -1.087 -1.146 16
3.3139999 -0.472 -0.76300001 16
4.4320002 -0.625 -0.861 15
6.401 -0.89600003 -1.027 12
3.7679999 -0.54500002 -0.79799998 11
5.1630001 -0.741 -0.91600001 14
7.9629998 -1.1339999 -1.138 19
3.2939999 -0.493 -0.75999999 13
4.4229999 -0.65600002 -0.861 13
6.3899999 -0.94 -1.028 14
3.7520001 -0.56999999 -0.796 12
5.152 -0.77700001 -0.91600001 13
7.8189998 -1.168 -1.12 22
3.283 -0.51599997 -0.75800002 14
4.408 -0.685 -0.86000001 12
6.3369999 -0.977 -1.021 14
3.743 -0.59600002 -0.796 11
5.1430001 -0.81199998 -0.91600001 13
7.5570002 -1.182 -1.085 23
3.2709999 -0.53799999 -0.75700003 15
4.3959999 -0.71499997 -0.85900003 11
6.2859998 -1.0140001 -1.015 17
3.727 -0.62099999 -0.79400003 11
5.131 -0.847 -0.91600001 13
7.2179999 -1.1799999 -1.038 12
3.26 -0.56 -0.75599998 13
4.3839998 -0.745 -0.85799998 12
6.243 -1.051 -1.01 17
3.7279999 -0.648 -0.796 12
5.152 -0.88800001 -0.92199999 14
6.9239998 -1.181 -0.99800003 10
3.247 -0.58200002 -0.755 13
4.3730001 -0.77499998 -0.85799998 12
6.2129998 -1.091 -1.008 20
3.704 -0.671 -0.792 10
5.1360002 -0.92199999 -0.921 14
6.6469998 -1.181 -0.96100003 12
3.234 -0.60399997 -0.75300002 14
4.3730001 -0.80699998 -0.86000001 12
6.1529999 -1.125 -1 23
3.697 -0.69700003 -0.79299998 11
5.0970001 -0.95200002 -0.91600001 13
6.3930001 -1.182 -0.926 15
3.23 -0.62699997 -0.75400001 13
4.3509998 -0.83399999 -0.85799998 12
6.099 -1.158 -0.99400002 27
3.6819999 -0.72100002 -0.79100001 10
5.072 -0.98400003 -0.91399997 14
6.131 -1.177 -0.88999999 21
3.2130001 -0.648 -0.75199997 12
4.355 -0.86799997 -0.861 20
5.9749999 -1.178 -0.97600001 24
3.6760001 -0.74800003 -0.792 11
5.0419998 -1.015 -0.91100001 15
5.9109998 -1.177 -0.861 22
3.2019999 -0.67000002 -0.75099999 12
4.2740002 -0.88300002 -0.847 15
5.7820001 -1.182 -0.94700003 19
3.671 -0.77399999 -0.79299998 11
4.9990001 -1.043 -0.90499997 16
5.7179999 -1.1799999 -0.83399999 27
3.191 -0.69199997 -0.75 12
4.2459998 -0.90799999 -0.84299999 13
5.5910001 -1.183 -0.91799998 21
3.6700001 -0.801 -0.79500002 12
4.9679999 -1.073 -0.90200001 16
5.54 -1.183 -0.81099999 30
3.1819999 -0.71399999 -0.75 12
4.217 -0.93400002 -0.83999997 13
5.4039998 -1.183 -0.889 20
3.668 -0.82800001 -0.796 12
4.9380002 -1.102 -0.89899999 18
5.3889999 -1.1900001 -0.79100001 34
3.174 -0.736 -0.75 13
4.184 -0.95700002 -0.83499998 13
5.23 -1.183 -0.86299998 18
3.654 -0.852 -0.79500002 14
4.9070001 -1.132 -0.89499998 17
5.2969999 -1.2079999 -0.77899998 26
3.1689999 -0.759 -0.75099999 12
4.164 -0.98400003 -0.833 14
5.0619998 -1.182 -0.838 19
3.6240001 -0.87300003 -0.79100001 18
4.8649998 -1.158 -0.88999999 21
5.211 -1.226 -0.76899999 22
3.174 -0.78500003 -0.75400001 14
4.138 -1.0089999 -0.82999998 15
4.8909998 -1.179 -0.81199998 19
3.586 -0.89099997 -0.78500003 13
4.79 -1.176 -0.87900001 21
5.1409998 -1.247 -0.76099998 20
3.171 -0.80800003 -0.75599998 14
4.1090002 -1.0319999 -0.82700002 15
4.7589998 -1.182 -0.792 22
3.5699999 -0.91399997 -0.78299999 14
4.6919999 -1.187 -0.86299998 24
5.1110001 -1.278 -0.75800002 22
3.165 -0.83099997 -0.75599998 13
4.0970001 -1.0599999 -0.82700002 17
4.6259999 -1.183 -0.77200001 23
3.556 -0.93800002 -0.78299999 15
4.5560002 -1.187 -0.84100002 21
5.0549998 -1.301 -0.75199997 19
3.1789999 -0.85900003 -0.76200002 21
4.0669999 -1.084 -0.82300001 18
4.493 -1.183 -0.75199997 25
3.536 -0.95999998 -0.77999997 16
4.421 -1.1849999 -0.81800002 17
4.9840002 -1.3200001 -0.74400002 20
3.1459999 -0.875 -0.75599998 19
4.052 -1.11 -0.82300001 20
4.3709998 -1.183 -0.73400003 25
3.5220001 -0.98299998 -0.77999997 16
4.3049998 -1.187 -0.79900002 18
4.9439998 -1.346 -0.74000001 21
3.1240001 -0.89300001 -0.75300002 17
4.0250001 -1.1339999 -0.81900001 20
4.2620001 -1.186 -0.71799999 25
3.507 -1.006 -0.77899998 17
4.1789999 -1.183 -0.778 18
4.9109998 -1.373 -0.73799998 21
3.105 -0.912 -0.75099999 18
4.0009999 -1.158 -0.81699997 20
4.1490002 -1.186 -0.70099998 25
3.4860001 -1.027 -0.77600002 17
4.0669999 -1.183 -0.759 21
4.8540001 -1.3940001 -0.73100001 19
3.092 -0.93300003 -0.75 19
3.9549999 -1.175 -0.81 23
4.0619998 -1.191 -0.68800002 26
3.4660001 -1.048 -0.77399999 17
3.971 -1.1849999 -0.74400002 19
4.8200002 -1.42 -0.72799999 18
3.082 -0.954 -0.75 18
3.8840001 -1.184 -0.79799998 22
3.9920001 -1.201 -0.67799997 24
3.454 -1.072 -0.77399999 19
3.878 -1.187 -0.72899997 21
4.7639999 -1.4400001 -0.722 20
3.052 -0.96899998 -0.745 19
3.7980001 -1.187 -0.78299999 21
3.9389999 -1.215 -0.671 22
3.431 -1.092 -0.77100003 20
3.7739999 -1.1849999 -0.71100003 20
4.7319999 -1.466 -0.72000003 19
3.039 -0.98900002 -0.74400002 19
3.701 -1.186 -0.76499999 21
3.8970001 -1.233 -0.66600001 23
3.414 -1.113 -0.76999998 19
3.6730001 -1.182 -0.69400001 18
4.7090001 -1.495 -0.71799999 22
3.0209999 -1.008 -0.74199998 19
3.6229999 -1.189 -0.75099999 22
3.8829999 -1.258 -0.66600001 23
3.3929999 -1.1339999 -0.76800001 20
3.6010001 -1.186 -0.68300003 21
4.6589999 -1.515 -0.713 20
3.0209999 -1.033 -0.745 19
3.54 -1.191 -0.73699999 20
3.846 -1.276 -0.662 22
3.375 -1.155 -0.76599997 19
3.523 -1.188 -0.67000002 19
4.6399999 -1.544 -0.713 21
3.003 -1.051 -0.74299997 22
3.45 -1.188 -0.72000003 19
3.8080001 -1.293 -0.65700001 21
3.359 -1.176 -0.76499999 22
3.434 -1.1849999 -0.65499997 21
4.5999999 -1.567 -0.70899999 21
2.9909999 -1.071 -0.74199998 22
3.3670001 -1.186 -0.70499998 19
3.7620001 -1.307 -0.65100002 21
3.3080001 -1.1849999 -0.75599998 20
3.3599999 -1.187 -0.64300001 21
4.5630002 -1.589 -0.70499998 22
2.9719999 -1.089 -0.74000001 20
3.306 -1.191 -0.69499999 18
3.73 -1.325 -0.648 21
3.253 -1.192 -0.745 20
3.2969999 -1.1900001 -0.63300002 22
4.5149999 -1.608 -0.69999999 21
2.954 -1.1059999 -0.73799998 20
3.2279999 -1.189 -0.68000001 17
3.6989999 -1.3430001 -0.64499998 20
3.1849999 -1.193 -0.73199999 19
3.237 -1.1950001 -0.62400001 22
4.487 -1.633 -0.69800001 23
2.941 -1.126 -0.73699999 20
3.1530001 -1.187 -0.667 17
3.684 -1.367 -0.64399999 20
3.1129999 -1.191 -0.71799999 24
3.1889999 -1.2029999 -0.616 20
4.4590001 -1.658 -0.69599998 22
2.9170001 -1.142 -0.73400003 20
3.0829999 -1.186 -0.65399998 21
3.6559999 -1.386 -0.64099997 19
3.049 -1.192 -0.70599997 19
3.1489999 -1.2130001 -0.611 19
4.4330001 -1.683 -0.69400001 22
2.9059999 -1.1619999 -0.73299998 23
3.0139999 -1.184 -0.64200002 20
3.632 -1.406 -0.639 19
2.9809999 -1.191 -0.69199997 20
3.1110001 -1.224 -0.60500002 18
4.4029999 -1.707 -0.69099998 20
2.892 -1.1799999 -0.73199999 23
2.95 -1.183 -0.63 21
3.5969999 -1.421 -0.63499999 20
2.9100001 -1.187 -0.67799997 19
3.079 -1.237 -0.60100001 17
4.3759999 -1.732 -0.68900001 22
2.8540001 -1.1900001 -0.72500002 21
2.9030001 -1.188 -0.62199998 20
3.566 -1.438 -0.63099998 18
2.865 -1.192 -0.67000002 20
3.0550001 -1.252 -0.59799999 17
4.3460002 -1.755 -0.68699998 21
2.8010001 -1.191 -0.71399999 21
2.8399999 -1.186 -0.61000001 21
3.5480001 -1.46 -0.63 19
2.806 -1.191 -0.65799999 21
3.03 -1.267 -0.59500003 16
4.323 -1.781 -0.685 22
2.7390001 -1.188 -0.70099998 22
2.773 -1.182 -0.59799999 21
3.5339999 -1.483 -0.63 19
2.7390001 -1.186 -0.64399999 22
3.0079999 -1.283 -0.59299999 17
4.2950001 -1.804 -0.68300003 19
2.6860001 -1.189 -0.68900001 22
2.727 -1.1849999 -0.58999997 21
3.5120001 -1.503 -0.62699997 19
2.688 -1.187 -0.63499999 22
2.9879999 -1.299 -0.59100002 15
4.2639999 -1.826 -0.68000001 20
2.6140001 -1.1799999 -0.67299998 23
2.675 -1.1849999 -0.57999998 20
3.484 -1.52 -0.62400001 20
2.6370001 -1.188 -0.625 24
2.9679999 -1.3150001 -0.588 16
4.2340002 -1.848 -0.67699999 19
2.575 -1.184 -0.66500002 24
2.6259999 -1.186 -0.57099998 19
3.4560001 -1.536 -0.62099999 19
2.5799999 -1.184 -0.61299998 24
2.9419999 -1.3279999 -0.58499998 16
4.1919999 -1.864 -0.67199999 18
2.5090001 -1.177 -0.64999998 24
2.592 -1.193 -0.56599998 19
3.438 -1.557 -0.62 19
2.5320001 -1.184 -0.60299999 26
2.928 -1.347 -0.58399999 16
4.165 -1.887 -0.66900003 18
2.461 -1.176 -0.63999999 26
2.556 -1.198 -0.56 17
3.421 -1.5779999 -0.61799997 19
2.4779999 -1.181 -0.59299999 25
2.915 -1.3660001 -0.583 17
4.1479998 -1.914 -0.66799998 18
2.4170001 -1.176 -0.63099998 28
2.529 -1.207 -0.55599999 16
3.391 -1.5930001 -0.61500001 20
2.4300001 -1.179 -0.583 27
2.898 -1.383 -0.58099997 18
4.1269999 -1.939 -0.667 20
2.369 -1.175 -0.62 26
2.5109999 -1.221 -0.55299997 15
3.3710001 -1.613 -0.61299998 20
2.395 -1.184 -0.57599998 32
2.872 -1.396 -0.57800001 15
4.1100001 -1.965 -0.66600001 19
2.332 -1.177 -0.61299998 24
2.5039999 -1.239 -0.55299997 16
3.352 -1.632 -0.611 21
2.3510001 -1.183 -0.56699997 23
2.8629999 -1.416 -0.57700002 15
4.0809999 -1.987 -0.662 17
2.2909999 -1.177 -0.60399997 25
2.487 -1.253 -0.551 16
3.3410001 -1.656 -0.61000001 21
2.3080001 -1.182 -0.55900002 25
2.8469999 -1.433 -0.57599998 16
4.0710001 -2.016 -0.662 19
2.2449999 -1.175 -0.59299999 26
2.47 -1.266 -0.54900002 16
3.3280001 -1.679 -0.60900003 21
2.273 -1.1849999 -0.55199999 29
2.832 -1.45 -0.574 16
4.0469999 -2.039 -0.66000003 18
2.2060001 -1.175 -0.58499998 24
2.4560001 -1.281 -0.54699999 17
3.312 -1.699 -0.60799998 21
2.2349999 -1.1849999 -0.54400003 28
2.8169999 -1.4680001 -0.57300001 17
4.026 -2.063 -0.65799999 17
2.1719999 -1.176 -0.57700002 27
2.438 -1.294 -0.54500002 16
3.2980001 -1.721 -0.60699999 22
2.2030001 -1.188 -0.53799999 25
2.8080001 -1.488 -0.57200003 18
4.007 -2.089 -0.65600002 19
2.131 -1.174 -0.56800002 26
2.418 -1.3049999 -0.54100001 16
3.2920001 -1.747 -0.60699999 21
2.1760001 -1.194 -0.53299999 22
2.7839999 -1.5 -0.56900001 17
3.997 -2.118 -0.65600002 18
2.089 -1.171 -0.55900002 25
2.4030001 -1.319 -0.54000002 16
3.273 -1.766 -0.60500002 22
2.1489999 -1.199 -0.528 20
2.7709999 -1.518 -0.56699997 17
3.9779999 -2.1429999 -0.65399998 18
2.0610001 -1.175 -0.55299997 28
2.3929999 -1.335 -0.53899997 15
3.2609999 -1.788 -0.60399997 22
2.132 -1.21 -0.52499998 17
2.7609999 -1.538 -0.56699997 17
3.964 -2.171 -0.653 18
2.0190001 -1.17 -0.54299998 30
2.385 -1.353 -0.53799999 14
3.253 -1.813 -0.60299999 22
2.1229999 -1.224 -0.52399999 16
2.7590001 -1.562 -0.56699997 17
3.961 -2.204 -0.653 18
1.99 -1.1720001 -0.537 31
2.3729999 -1.368 -0.537 15
3.24 -1.835 -0.602 21
2.1140001 -1.239 -0.523 16
2.744 -1.5779999 -0.565 18
3.941 -2.2279999 -0.64999998 18
1.957 -1.171 -0.52899998 33
2.3640001 -1.385 -0.53600001 15
3.2279999 -1.857 -0.60100001 22
2.099 -1.25 -0.51999998 16
2.733 -1.597 -0.56400001 19
3.9330001 -2.2590001 -0.64999998 18
1.932 -1.175 -0.52399999 36
2.362 -1.406 -0.53600001 17
3.2219999 -1.8839999 -0.60000002 21
2.0910001 -1.265 -0.51899999 16
2.7190001 -1.614 -0.56199998 16
3.9159999 -2.2839999 -0.648 17
1.905 -1.177 -0.51800001 35
2.3440001 -1.4170001 -0.53299999 17
3.2 -1.9 -0.597 19
2.0829999 -1.28 -0.51800001 17
2.7049999 -1.631 -0.56 16
3.9159999 -2.3199999 -0.648 17
1.878 -1.179 -0.51200002 31
2.336 -1.434 -0.53200001 15
3.1889999 -1.923 -0.59600002 19
2.0710001 -1.293 -0.51700002 17
2.7030001 -1.655 -0.56 15
3.9030001 -2.348 -0.64700001 17
1.855 -1.183 -0.50599998 30
2.326 -1.45 -0.53100002 15
3.1760001 -1.944 -0.59399998 18
2.0680001 -1.311 -0.51700002 17
2.6900001 -1.6720001 -0.55800003 14
3.9070001 -2.3859999 -0.648 18
1.834 -1.188 -0.50199997 26
2.316 -1.466 -0.52899998 15
3.1619999 -1.965 -0.59200001 17
2.0650001 -1.33 -0.51700002 16
2.675 -1.689 -0.55599999 14
3.901 -2.418 -0.64700001 17
1.812 -1.192 -0.49700001 22
2.3169999 -1.489 -0.52999997 16
3.1570001 -1.9910001 -0.59100002 20
2.0510001 -1.34 -0.514 16
2.665 -1.707 -0.55400002 15
3.904 -2.4560001 -0.64700001 17
1.807 -1.206 -0.49599999 19
2.3069999 -1.505 -0.52899998 15
3.1470001 -2.0139999 -0.58899999 20
2.0469999 -1.358 -0.514 16
2.665 -1.733 -0.55500001 15
3.9000001 -2.49 -0.64700001 18
1.799 -1.219 -0.495 18
2.306 -1.527 -0.52899998 16
3.151 -2.0469999 -0.58999997 20
2.0369999 -1.3710001 -0.51200002 15
2.6600001 -1.755 -0.55400002 15
3.9000001 -2.526 -0.64600003 19
1.786 -1.228 -0.49200001 18
2.3050001 -1.548 -0.52899998 16
3.1429999 -2.0710001 -0.58899999 20
2.0280001 -1.385 -0.50999999 15
2.655 -1.777 -0.55299997 15
3.9030001 -2.5639999 -0.64600003 18
1.783 -1.244 -0.49200001 19
2.303 -1.569 -0.52899998 16
3.154 -2.108 -0.59100002 18
2.0250001 -1.403 -0.50999999 15
2.648 -1.7970001 -0.55199999 16
3.925 -2.615 -0.64899999 17
1.78 -1.26 -0.49200001 18
2.2969999 -1.5880001 -0.528 17
3.1440001 -2.132 -0.58899999 17
2.01 -1.413 -0.50700003 15
2.6489999 -1.824 -0.55199999 15
3.927 -2.6530001 -0.64899999 16
1.774 -1.274 -0.49000001 18
2.2920001 -1.607 -0.52700001 15
3.151 -2.1659999 -0.58999997 16
2.0120001 -1.434 -0.50800002 14
2.6440001 -1.846 -0.551 15
3.925 -2.6900001 -0.648 15
1.763 -1.284 -0.48800001 18
2.2880001 -1.627 -0.52600002 15
3.164 -2.2049999 -0.59100002 17
2.0050001 -1.449 -0.50599998 15
2.642 -1.87 -0.55000001 15
3.9389999 -2.7360001 -0.64899999 15
1.76 -1.3 -0.48699999 19
2.2850001 -1.647 -0.52499998 15
3.1760001 -2.244 -0.59299999 18
2.0009999 -1.467 -0.505 16
2.6489999 -1.901 -0.551 16
3.95 -2.7809999 -0.64899999 16
1.7589999 -1.317 -0.48800001 17
2.2850001 -1.669 -0.52499998 15
3.187 -2.2820001 -0.59399998 18
2.0039999 -1.489 -0.50599998 22
2.6559999 -1.932 -0.55199999 15
3.9790001 -2.839 -0.653 16
1.755 -1.3329999 -0.48699999 17
2.2850001 -1.692 -0.52499998 14
3.197 -2.3199999 -0.59500003 17
2.006 -1.511 -0.50700003 16
2.668 -1.966 -0.55400002 14
3.993 -2.8870001 -0.653 15
1.76 -1.354 -0.48800001 18
2.2850001 -1.714 -0.52399999 14
3.2079999 -2.359 -0.59600002 16
2 -1.527 -0.505 13
2.671 -1.995 -0.55400002 14
4.0110002 -2.938 -0.65399998 15
1.757 -1.37 -0.48699999 16
2.2880001 -1.739 -0.52499998 14
3.2219999 -2.4000001 -0.597 16
1.998 -1.545 -0.50400001 14
2.6849999 -2.0309999 -0.55599999 14
4.0300002 -2.99 -0.65499997 15
1.7589999 -1.39 -0.48800001 15
2.2880001 -1.762 -0.52399999 15
3.2309999 -2.438 -0.597 16
2.0020001 -1.568 -0.50400001 14
2.697 -2.0669999 -0.55699998 13
4.052 -3.0450001 -0.65600002 15
1.7539999 -1.404 -0.486 17
2.2969999 -1.7920001 -0.52499998 16
3.2520001 -2.4849999 -0.59899998 16
2.0009999 -1.5880001 -0.50400001 14
2.7079999 -2.102 -0.55800003 14
4.0780001 -3.1029999 -0.65799999 16
1.755 -1.423 -0.486 15
2.2980001 -1.8150001 -0.52399999 15
3.2750001 -2.5339999 -0.602 16
2.0009999 -1.608 -0.50300002 15
2.7119999 -2.131 -0.55699998 14
4.1009998 -3.1600001 -0.65799999 17
1.7640001 -1.448 -0.48800001 14
2.299 -1.839 -0.523 15
3.2869999 -2.575 -0.602 16
2.007 -1.632 -0.50300002 14
2.723 -2.1659999 -0.55800003 15
4.1440001 -3.2320001 -0.662 15
1.763 -1.465 -0.48699999 16
2.303 -1.865 -0.523 14
3.2980001 -2.615 -0.60100001 16
2.013 -1.6569999 -0.50400001 13
2.7360001 -2.2030001 -0.55900002 16
4.1729999 -3.2939999 -0.66299999 13
1.767 -1.487 -0.48699999 14
2.309 -1.892 -0.523 14
3.325 -2.668 -0.60299999 15
2.017 -1.681 -0.50400001 13
2.753 -2.243 -0.56 15
4.2059999 -3.3599999 -0.66399997 13
1.7690001 -1.506 -0.48699999 13
2.3139999 -1.919 -0.52200001 12
3.349 -2.7190001 -0.60500002 15
2.0209999 -1.704 -0.50400001 13
2.776 -2.2880001 -0.56300002 14
4.2529998 -3.437 -0.66799998 11
1.774 -1.528 -0.48699999 14
2.3269999 -1.952 -0.52399999 14
3.382 -2.7780001 -0.60699999 14
2.0339999 -1.735 -0.505 12
2.7939999 -2.3299999 -0.56300002 13
4.296 -3.5109999 -0.67000002 12
1.781 -1.552 -0.48800001 14
2.345 -1.989 -0.52499998 14
3.4130001 -2.836 -0.61000001 14
2.0369999 -1.757 -0.50400001 11
2.806 -2.3659999 -0.56300002 14
4.3660002 -3.6099999 -0.676 13
1.788 -1.575 -0.48800001 13
2.349 -2.0150001 -0.52399999 13
3.4460001 -2.8940001 -0.61199999 15
2.0539999 -1.7920001 -0.50700003 12
2.822 -2.4059999 -0.56400001 14
4.4439998 -3.7149999 -0.68300003 12
1.781 -1.587 -0.48500001 13
2.3510001 -2.04 -0.52200001 12
3.4879999 -2.9619999 -0.61500001 15
2.062 -1.818 -0.50599998 12
2.849 -2.4560001 -0.56599998 13
4.487 -3.7920001 -0.68300003 12
1.788 -1.61 -0.48500001 12
2.3740001 -2.0810001 -0.52499998 11
3.54 -3.039 -0.62 15
2.0780001 -1.852 -0.50800002 12
2.8699999 -2.5009999 -0.56599998 12
4.5539999 -3.8900001 -0.68699998 11
1.799 -1.638 -0.486 12
2.395 -2.122 -0.52600002 11
3.589 -3.1140001 -0.62400001 12
2.0880001 -1.881 -0.50800002 11
2.8900001 -2.5450001 -0.56699997 14
4.6440001 -4.0079999 -0.69400001 12
1.806 -1.661 -0.486 12
2.424 -2.1700001 -0.52999997 11
3.641 -3.191 -0.62699997 11
2.1059999 -1.916 -0.50999999 11
2.928 -2.6040001 -0.56999999 14
4.7340002 -4.1269999 -0.69999999 17
1.822 -1.692 -0.48800001 14
2.448 -2.214 -0.53200001 11
3.6849999 -3.263 -0.62900001 12
2.1159999 -1.944 -0.50999999 12
2.974 -2.6719999 -0.574 13
4.7789998 -4.2080002 -0.699 28
1.832 -1.7180001 -0.48800001 14
2.474 -2.2590001 -0.53299999 10
3.7490001 -3.3510001 -0.634 11
2.142 -1.987 -0.51300001 12
3.02 -2.7390001 -0.579 12
4.8179998 -4.2839999 -0.69700003 33
1.845 -1.747 -0.48899999 12
2.497 -2.3010001 -0.53399998 10
3.8010001 -3.431 -0.63700002 11
2.158 -2.0209999 -0.51300001 13
3.0539999 -2.7950001 -0.57999998 12
4.915 -4.4109998 -0.70200002 34
1.872 -1.788 -0.493 12
2.5309999 -2.3540001 -0.537 10
3.859 -3.5150001 -0.639 13
2.1760001 -2.056 -0.514 13
3.0969999 -2.8610001 -0.583 12
4.934 -4.4699998 -0.69599998 39
1.877 -1.809 -0.491 12
2.589 -2.4289999 -0.54500002 11
3.9430001 -3.6240001 -0.64600003 12
2.2 -2.0969999 -0.51599997 14
3.158 -2.9430001 -0.588 11
5.1529999 -4.7090001 -0.71700001 40
1.891 -1.839 -0.49200001 10
2.6270001 -2.4860001 -0.54799998 12
4.026 -3.7320001 -0.65200001 12
2.207 -2.122 -0.51300001 13
3.2119999 -3.0190001 -0.59200001 12
5.1690001 -4.7649999 -0.708 41
1.915 -1.876 -0.49399999 10
2.675 -2.552 -0.55299997 12
4.1100001 -3.842 -0.65700001 11
2.233 -2.1630001 -0.51499999 12
3.2620001 -3.0910001 -0.59500003 12
5.1929998 -4.8280001 -0.70099998 36
1.9299999 -1.906 -0.49399999 11
2.711 -2.6070001 -0.55500001 12
4.2199998 -3.977 -0.66600001 11
2.26 -2.2060001 -0.51599997 11
3.3280001 -3.1789999 -0.60000002 13
5.204 -4.8769999 -0.69099998 23
1.957 -1.947 -0.49700001 10
2.73 -2.645 -0.55299997 12
4.3319998 -4.1149998 -0.67400002 11
2.293 -2.256 -0.51899999 11
3.401 -3.273 -0.60500002 13
5.4310002 -5.1300001 -0.708 6
1.9809999 -1.985 -0.49900001 10
2.78 -2.714 -0.55699998 11
4.4650002 -4.2729998 -0.68400002 13
2.329 -2.3069999 -0.52100003 10
3.4590001 -3.3529999 -0.60699999 11
5.5300002 -5.2620001 -0.708 5
2.0050001 -2.023 -0.5 10
2.825 -2.777 -0.55900002 12
4.6090002 -4.4419999 -0.69499999 18
2.3599999 -2.3540001 -0.523 10
3.563 -3.477 -0.61699998 11
7.2849998 -6.9819999 -0.91500002 33
2.046 -2.0769999 -0.505 10
2.878 -2.848 -0.56199998 11
4.7140002 -4.5739999 -0.699 29
2.4089999 -2.4170001 -0.52700001 10
3.642 -3.5780001 -0.62199998 10
7.3249998 -7.0679998 -0.90200001 26
2.0699999 -2.1140001 -0.50599998 10
2.9489999 -2.9349999 -0.56900001 11
4.7800002 -4.6690001 -0.69700003 37
2.467 -2.49 -0.53399998 10
3.7390001 -3.6960001 -0.62800002 10
8.625 -8.3760004 -1.039 20
2.1029999 -2.1600001 -0.50800002 10
3.017 -3.0209999 -0.574 11
4.829 -4.7449999 -0.69099998 41
2.5209999 -2.559 -0.53899997 10
3.8340001 -3.812 -0.634 10
8.9180002 -8.7139997 -1.05 33
2.1289999 -2.197 -0.50800002 11
3.0840001 -3.105 -0.57800001 10
4.8660002 -4.809 -0.68300003 38
2.5680001 -2.6199999 -0.54100001 10
3.954 -3.9519999 -0.64300001 10
9.1990004 -9.0389996 -1.058 27
2.1630001 -2.244 -0.50999999 11
3.151 -3.188 -0.58200002 10
4.9050002 -4.8740001 -0.67400002 34
2.6259999 -2.6919999 -0.546 10
4.0650001 -4.0840001 -0.64899999 10
9.2690001 -9.158 -1.039 14
2.2119999 -2.3039999 -0.51499999 10
3.2449999 -3.2980001 -0.58899999 10
4.954 -4.947 -0.667 19
2.6830001 -2.7620001 -0.55000001 10
4.224 -4.2639999 -0.662 10
10.894 -10.817 -1.189 30
2.2590001 -2.362 -0.51899999 10
3.3299999 -3.4000001 -0.59500003 10
4.96 -4.9749999 -0.653 12
2.7360001 -2.8269999 -0.55199999 10
4.4330001 -4.494 -0.68199998 14
10.936 -10.909 -1.161 33
2.3039999 -2.4170001 -0.52200001 10
3.4219999 -3.507 -0.60100001 9
4.987 -5.0229998 -0.64099997 1
2.799 -2.902 -0.55599999 10
4.5320001 -4.6110001 -0.68300003 22
11.188 -11.208 -1.153 21
2.349 -2.4719999 -0.52399999 10
3.539 -3.6389999 -0.61000001 9
7.3769999 -7.46 -0.926 14
2.8659999 -2.98 -0.56 10
4.5819998 -4.678 -0.676 33
11.495 -11.559 -1.149 15
2.408 -2.539 -0.52899998 9
3.6700001 -3.7850001 -0.62099999 9
8.599 -8.7250004 -1.052 29
2.971 -3.098 -0.57099998 9
4.6560001 -4.7680001 -0.67199999 34
12.194 -12.305 -1.1799999 0
2.474 -2.615 -0.53500003 7
3.793 -3.921 -0.62900001 9
8.8839998 -9.04 -1.058 22
3.0450001 -3.181 -0.57499999 9
4.823 -4.9510002 -0.68000001 29
14.638 -14.817 -1.369 10
2.5409999 -2.6889999 -0.54100001 8
3.924 -4.066 -0.63700002 10
9.9899998 -10.191 -1.1569999 25
3.128 -3.273 -0.579 8
5.2410002 -5.3920002 -0.72100002 27
14.668 -14.885 -1.323 2
2.6010001 -2.756 -0.54400003 8
4.079 -4.2329998 -0.648 11
10.343 -10.574 -1.163 30
3.2290001 -3.3829999 -0.58600003 8
5.4809999 -5.6490002 -0.73500001 18
25.566 -26.000999 -2.2219999 8
2.6730001 -2.8340001 -0.55000001 7
4.2709999 -4.4369998 -0.66399997 15
10.585 -10.84 -1.154 26
3.3440001 -3.507 -0.59600002 8
5.5440001 -5.7220001 -0.72500002 1
25.531 -26.011 -2.132 8
2.743 -2.9089999 -0.55400002 8
4.4260001 -4.6020002 -0.67299998 26
10.934 -11.212 -1.155 22
3.447 -3.615 -0.60100001 8
7.507 -7.7529998 -0.95499998 29
25.27 -25.780001 -2.0239999 5
2.8199999 -2.99 -0.55900002 7
4.52 -4.6999998 -0.671 31
11.426 -11.725 -1.1670001 23
3.572 -3.7460001 -0.61000001 8
8.5190001 -8.8009996 -1.054 19
25.200001 -25.732 -1.932 3
2.9260001 -3.0999999 -0.56900001 7
4.6100001 -4.7940001 -0.667 31
13.012 -13.358 -1.283 8
3.7190001 -3.8970001 -0.62099999 9
9.0050001 -9.3039999 -1.082 24
25.190001 -25.735001 -1.8430001 7
3.01 -3.1849999 -0.57300001 8
4.7750001 -4.9619999 -0.67400002 26
14.567 -14.954 -1.386 22
3.8699999 -4.0510001 -0.63200003 10
9.7089996 -10.026 -1.132 26
25.18 -25.725 -1.755 14
3.1040001 -3.279 -0.579 8
5.151 -5.348 -0.708 21
14.688 -15.071 -1.345 4
4.0190001 -4.2010002 -0.64200002 10
10.03 -10.348 -1.133 30
25.166 -25.704 -1.666 19
3.2190001 -3.3929999 -0.588 8
5.467 -5.6669998 -0.73100001 8
25.167999 -25.802 -2.2160001 5
4.2509999 -4.4349999 -0.662 14
10.433 -10.749 -1.141 20
25.158001 -25.674 -1.577 17
3.352 -3.5250001 -0.60000002 8
5.533 -5.7249999 -0.72000003 0
25.261 -25.862 -2.135 6
4.427 -4.6079998 -0.67299998 20
10.994 -11.307 -1.1619999 21
25.176001 -25.662001 -1.49 4
3.4690001 -3.6370001 -0.60699999 7
7.658 -7.9070001 -0.96799999 20
25.277 -25.834999 -2.0450001 6
4.5219998 -4.6939998 -0.671 26
11.374 -11.672 -1.161 21
26.51 -26.976999 -1.477 15
3.632 -3.7950001 -0.62099999 8
8.5679998 -8.8219995 -1.052 16
25.288 -25.790001 -1.957 4
4.6230001 -4.783 -0.66799998 25
12.84 -13.143 -1.2640001 4
26.521999 -26.931999 -1.3839999 18
3.7750001 -3.9289999 -0.63099998 8
9.0089998 -9.2469997 -1.073 16
25.302999 -25.739 -1.869 7
4.7820001 -4.9299998 -0.67299998 23
14.524 -14.822 -1.378 18
26.568001 -26.915001 -1.294 16
3.9389999 -4.0830002 -0.64300001 9
9.8990002 -10.124 -1.142 23
25.337 -25.695999 -1.781 4
5.2750001 -5.4169998 -0.72299999 22
14.752 -15.003 -1.347 2
26.690001 -26.961 -1.2079999 15
4.1069999 -4.2379999 -0.65499997 9
10.397 -10.593 -1.1619999 28
25.354 -25.627001 -1.694 5
5.4980001 -5.6199999 -0.73199999 19
25.774 -26.111 -2.2620001 11
26.77 -26.952 -1.119 6
4.3390002 -4.4549999 -0.67500001 12
10.7 -10.854 -1.1569999 27
5.402 -5.4970002 -0.69999999 3
26.242001 -26.474001 -2.211 8
34.188 -34.294998 -1.314 16
4.4980001 -4.5939999 -0.68199998 19
11.158 -11.265 -1.166 22
7.2680001 -7.3579998 -0.91500002 24
26.443001 -26.556999 -2.1359999 8
35.143002 -35.111 -1.233 9
4.5939999 -4.6659999 -0.68000001 29
11.538 -11.591 -1.165 19
25.990999 -25.945999 -1.469 8
8.5979996 -8.6560001 -1.051 24
25.806 -25.788 -1.994 6
35.304001 -35.116001 -1.12 14
4.7150002 -4.7610002 -0.68000001 31
11.559 -11.55 -1.127 0
26.039 -25.867001 -1.385 8
8.8769999 -8.8850002 -1.053 32
26.091999 -25.936001 -1.928 3
35.411999 -35.056 -1.008 16
4.8010001 -4.816 -0.67500001 28
14.662 -14.566 -1.378 16
26.021 -25.715 -1.295 7
9.1920004 -9.1440001 -1.058 23
26.153999 -25.851999 -1.845 5
32.088001 -31.603001 -0.81099999 12
4.96 -4.9429998 -0.67900002 22
14.856 -14.668 -1.346 2
26.073999 -25.622 -1.215 3
9.3400002 -9.2309999 -1.0420001 13
26.122999 -25.665001 -1.755 6
32.159 -31.497 -0.70700002 11
5.0700002 -5.0170002 -0.676 18
24.919001 -24.448 -2.174 8
36.210999 -35.374001 -1.571 13
9.7969999 -9.6169996 -1.0599999 3
26.316 -25.694 -1.683 1
32.259998 -31.414 -0.611 8
5.3460002 -5.2509999 -0.69400001 13
25.136 -24.493 -2.109 11
36.366001 -35.300999 -1.46 24
11.468 -11.178 -1.202 27
51.425999 -49.879002 -3.125 35
32.254002 -31.215 -0.51300001 13
7.256 -7.0739999 -0.917 23
25.216999 -24.400999 -2.0350001 9
32.416 -31.26 -1.204 15
11.791 -11.407 -1.196 17
51.438999 -49.542 -2.9630001 25
32.450001 -31.198999 -0.41600001 15
7.3839998 -7.1430001 -0.90799999 13
24.957001 -23.973 -1.934 55
32.431 -31.061001 -1.107 30
12.983 -12.463 -1.275 1
51.464001 -49.209 -2.8069999 20
32.491001 -31.025999 -0.324 11
7.4190001 -7.118 -0.88800001 2
25.097 -23.922001 -1.8660001 148
32.616001 -31.013 -1.0140001 5
13.361 -12.725 -1.27 1
37.563999 -35.651001 -1.936 11
31.216 -29.598 -0.222 25
9.2259998 -8.7779999 -1.074 20
25.214001 -23.844999 -1.798 26
36.703999 -34.638 -1.0369999 18
14.716 -13.899 -1.353 2
43.355 -40.821999 -2.1059999 8
31.372999 -29.527 -0.133 23
9.3409996 -8.8109999 -1.058 15
25.49 -23.91 -1.742 16
36.358002 -34.047001 -0.92500001 17
24.448999 -22.896999 -2.1730001 3
36.514999 -34.105999 -1.669 7
31.549999 -29.465 -0.050000001 22
11.167 -10.44 -1.229 22
26.104 -24.278999 -1.707 2
36.500999 -33.905998 -0.82499999 8
26.347 -24.459999 -2.2639999 11
36.581001 -33.883999 -1.5700001 13
31.761 -29.427 0.032000002 18
10.023 -9.2849998 -1.073 1
38.796001 -35.772999 -2.428 12
36.424 -33.553001 -0.72799999 13
24.778 -22.797001 -2.056 4
37.921001 -34.820999 -1.523 7
35.904999 -32.991001 0.132 9
12.106 -11.111 -1.26 22
25.882999 -23.655001 -1.549 26
38.083 -34.783001 -0.66299999 14
24.891001 -22.691 -1.9960001 6
38.205002 -34.776001 -1.434 17
30.046 -27.375 0.184 2
11.378 -10.342 -1.151 2
37.548 -33.998001 -2.145 7
38.316002 -34.686001 -0.56699997 8
24.464001 -22.093 -1.8940001 13
29.605 -26.738001 0.25299999 3
14.228 -12.808 -1.4 22
29.540001 -26.5 -0.366 4
24.653 -22.048 -1.842 11
37.785 -33.763 -1.225 11
29.563999 -26.459999 0.32499999 9
14.255 -12.706 -1.363 7
39.247002 -34.872002 -2.04 11
29.965 -26.635 -0.30000001 5
24.716999 -21.889 -1.783 13
38.006001 -33.639 -1.14 11
29.645 -26.288 0.391 10
14.642 -12.917 -1.3609999 0
35.125999 -30.902 -1.738 11
32.145 -28.299999 -0.245 18
24.893 -21.825001 -1.733 6
32.445999 -28.441999 -0.89700001 11
29.959999 -26.318001 0.461 11
25.011 -21.837999 -2.2609999 5
35.333 -30.775 -1.664 7
29.341999 -25.582001 -0.16 11
25.825001 -22.409 -1.734 18
32.541 -28.239 -0.82499999 19
29.742001 -25.875999 0.52100003 17
26.163 -22.606001 -2.3 10
40.300999 -34.747002 -1.8049999 8
29.996 -25.893999 -0.098999999 12
25.645 -22.023001 -1.661 7
32.691002 -28.083 -0.75700003 25
29.802999 -25.671 0.58399999 13
25.091 -21.445 -2.1440001 6
25.181 -21.485001 -1.0700001 3
30.719999 -26.250999 -0.037999999 13
25.207001 -21.417999 -1.575 55
25.219999 -21.443001 -0.52999997 37
29.223 -24.919001 0.63 17
25.715 -21.742001 -2.1370001 9
25.261999 -21.327 -1.0190001 7
25.316 -21.41 0.02 50
42.354 -35.598999 -2.552 5
29.747999 -25.025 -0.56400001 10
25.361 -21.403999 0.59500003 47
26.599001 -22.243 -2.1500001 10
40.647999 -33.951 -1.556 11
29.691999 -24.848 0.079999998 14
42.862999 -35.636002 -2.4909999 5
29.554001 -24.598 -0.50099999 13
29.548 -24.676001 0.74800003 17
24.757 -20.469999 -1.946 1
30.089001 -24.855 -1.09 5
30.135 -24.951 0.138 11
43.455002 -35.73 -2.4349999 11
29.726999 -24.475 -0.44800001 11
29.504 -24.378 0.79799998 11
24.882999 -20.344 -1.903 6
39.518002 -32.285 -1.355 9
30.105 -24.653 0.192 9
41.108002 -33.417 -2.22 14
30.236 -24.617001 -0.39899999 10
29.584 -24.181 0.85000002 12
25.628 -20.714001 -1.9069999 21
40.155998 -32.443001 -1.301 3
29.475 -23.874001 0.23899999 11
39.938999 -32.098999 -2.0799999 6
29.959999 -24.121 -0.34299999 15
23.295 -18.829 0.70700002 4
25.892 -20.681999 -1.875 7
39.646 -31.663 -1.212 6
29.021999 -23.245001 0.28299999 18
26.856001 -21.337999 -1.349 12
30.315001 -24.132 -0.29499999 5
23.562 -18.832001 0.75199997 7
40.307999 -31.820999 -2.842 10
35.846001 -28.299999 -1.034 22
30.027 -23.774 0.34099999 18
26.903 -21.122999 -1.302 14
34.310001 -26.996 -0.27700001 25
23.424 -18.511999 0.78200001 9
40.09 -31.275999 -2.753 9
27.252001 -21.264999 -0.74000001 18
23.671 -18.527 0.30399999 15
41.382999 -32.110001 -1.932 7
27.503 -21.389 -0.17900001 15
23.544001 -18.389999 0.81999999 17
40.258999 -31.028999 -2.6919999 3
36.167 -27.886999 -0.92400002 19
24.236 -18.749001 0.347 4
40.028999 -30.688999 -1.803 15
27.159 -20.872999 -0.13600001 24
23.556 -18.186001 0.852 15
43.051998 -32.780998 -2.806 8
34.962002 -26.636 -0.83899999 17
24.083 -18.409 0.37900001 6
35.471001 -26.864 -1.54 4
27.464001 -20.853001 -0.097999997 6
23.774 -18.138 0.88999999 17
51.637001 -38.837002 -3.2809999 24
27.025999 -20.343 -0.60900003 7
26.496 -20.013 0.45199999 5
35.985001 -26.922001 -1.507 21
27.795 -20.851999 -0.061000001 23
23.895 -18.011 0.92400002 13
44.053001 -32.717999 -2.7279999 10
27.139 -20.174999 -0.57300001 19
23.895 -17.830999 0.43700001 3
45.044998 -33.285999 -1.821 18
26.924 -19.952999 -0.024 15
22.132 -16.481001 0.88200003 3
44.380001 -32.553001 -2.681 14
37.861 -27.799999 -0.74800003 7
24.063999 -17.735001 0.47 3
37.535999 -27.386999 -1.464 17
27.052 -19.797001 0.0089999996 19
22.138 -16.285 0.90600002 2
37.756001 -27.346001 -2.2260001 10
38.895 -28.205 -0.71799999 6
25.974001 -18.907 0.537 32
37.676998 -27.145 -1.419 11
27.177999 -19.642 0.041999999 18
22.231001 -16.148001 0.93400002 2
38.405998 -27.458 -2.211 17
38.285999 -27.409 -0.65899998 17
25.686001 -18.465 0.55900002 30
37.785999 -26.879999 -1.374 18
27.386 -19.542999 0.072999999 14
24.306 -17.434999 1.045 16
38.588001 -27.233999 -2.1700001 15
38.182999 -26.989 -0.61299998 18
24.059999 -17.075001 0.54799998 11
37.922001 -26.625999 -1.332 8
27.375999 -19.285999 0.103 3
24.156 -17.108999 1.061 8
39.491001 -27.511 -2.1700001 10
38.216999 -26.667 -0.57099998 25
27.184999 -19.046 0.64600003 22
40.290001 -27.923 -1.368 15
39.178001 -27.245001 0.18799999 16
37.323002 -26.093 1.6720001 28
40.089001 -27.559 -2.1530001 18
38.636002 -26.606001 -0.53500003 14
27.163 -18.785999 0.67000002 12
38.777 -26.524 -1.274 15
39.466999 -27.091 0.227 23
21.677 -14.959 0.98900002 5
40.155998 -27.240999 -2.1099999 16
38.814999 -26.379999 -0.498 31
39.509998 -26.966 1.01 12
38.841 -26.214001 -1.234 21
38.928001 -26.365999 0.26100001 20
27.466999 -18.708 1.274 3
40.263 -26.950001 -2.0710001 6
39.102001 -26.224001 -0.46399999 23
39.484001 -26.594 1.0420001 27
39.143002 -26.066 -1.204 20
39.25 -26.233999 0.29699999 24
27.608 -18.552 1.301 9
40.348 -26.639 -2.0320001 13
39.511002 -26.139999 -0.433 13
27.129999 -18.031 0.73699999 2
39.723 -26.098 -1.183 23
39.527 -26.066 0.33199999 26
27.704 -18.370001 1.324 4
40.601002 -26.445 -2.003 13
39.764 -25.954 -0.40099999 29
28.323 -18.566999 0.79000002 3
40.560001 -26.281 -1.17 18
39.880001 -25.938999 0.366 24
27.559 -18.028 1.335 3
40.729 -26.167 -1.97 21
40.053001 -25.789 -0.37099999 29
27.974001 -18.091999 0.79900002 26
40.576 -25.933001 -1.136 16
40.435001 -25.941999 0.40000001 27
22.493 -14.511 1.103 9
41.124001 -26.051001 -1.951 22
40.765999 -25.882999 -0.34599999 20
28.073 -17.908001 0.81999999 24
40.981998 -25.833 -1.113 12
28.622999 -18.112 0.303 12
21.413 -13.625 1.061 1
41.594002 -25.983 -1.938 21
42.222 -26.436001 -0.32800001 27
28.024 -17.625999 0.83499998 10
51.880001 -32.241001 -1.368 20
43.717999 -27.278999 0.48899999 26
21.48 -13.479 1.075 2
51.867001 -31.945999 -2.3740001 36
27.837 -17.186001 -0.197 2
28.247999 -17.518999 0.85699999 18
51.939999 -31.825001 -1.332 44
27.973 -17.208 0.331 5
23.256001 -14.387 1.175 7
51.883999 -31.5 -2.3329999 39
51.993999 -31.648001 -0.33700001 46
28.922001 -17.684999 0.89200002 6
51.953999 -31.382999 -1.296 41
29.274 -17.754 0.36300001 4
23.042999 -14.054 1.174 14
51.984001 -31.110001 -2.299 22
28.820999 -17.291 -0.167 7
28.153 -16.968 0.88200003 10
51.971001 -30.938 -1.262 40
28.346001 -16.945 0.36500001 15
22.225 -13.362 1.141 1
52.027 -30.688 -2.2639999 14
28.584999 -16.903999 -0.15000001 11
23.547001 -13.988 0.74800003 11
51.964001 -30.489 -1.23 42
28.535 -16.811001 0.382 20
22.577999 -13.375 1.1670001 9
52.007999 -30.225 -2.2290001 5
28.950001 -16.870001 -0.138 18
28.346001 -16.596001 0.912 18
29.573 -17.099001 -0.68300003 3
28.865 -16.757999 0.40000001 34
22.559999 -13.171 1.173 24
52.161999 -29.871 -2.2030001 14
29.069 -16.688999 -0.123 16
28.639 -16.518 0.93099999 19
29.639999 -16.882 -0.66799998 8
29.035 -16.608 0.41299999 34
22.677999 -13.046 1.186 13
51.937 -29.302999 -2.1630001 10
52.039001 -29.438 -0.19599999 42
23.177 -13.171 0.76099998 4
51.997002 -29.177999 -1.146 42
29.587999 -16.671 0.433 34
22.679001 -12.85 1.191 24
51.995998 -28.892 -2.1359999 14
28.638 -15.959 -0.096000001 16
22.677999 -12.696 0.75199997 1
29.628 -16.377001 -0.639 4
29.216 -16.216 0.43799999 31
23.184 -12.94 1.223 21
26.757999 -14.644 -1.085 22
26.771999 -14.691 -0.079000004 30
23.719999 -13.077 0.79299998 9
26.785999 -14.579 -0.56599998 31
26.747 -14.622 0.40900001 39
23.153999 -12.728 1.226 13
26.789 -14.438 -1.074 25
26.787001 -14.476 -0.068999998 37
23.806999 -12.925 0.801 11
26.861 -14.397 -0.55599999 30
26.827999 -14.439 0.41800001 36
23.781 -12.871 1.262 20
26.962 -14.306 -1.068 16
26.957001 -14.345 -0.061000001 27
23.638 -12.636 0.80000001 25
52.021 -27.452999 -1.058 42
27.089001 -14.355 0.42899999 13
23.782 -12.672 1.266 5
52.061001 -27.195 -2.0409999 3
52.108002 -27.294001 -0.102 33
30.716999 -16.163 1.046 25
52.035999 -27.027 -1.04 37
52.617001 -27.448999 0.84600002 14
23.649 -12.405 1.261 7
52.088001 -26.783001 -2.0209999 11
29.74 -15.334 -0.050000001 10
30.898001 -16.004 1.057 23
52.042 -26.607 -1.024 41
30.714001 -15.768 0.5 5
30.802999 -15.899 1.645 29
52.049999 -26.334 -2.0009999 17
30.16 -15.305 -0.043000001 2
29.384001 -14.979 1.0089999 2
52.034 -26.181 -1.008 38
30.065001 -15.19 0.495 4
31.106001 -15.801 1.663 18
52.056999 -25.917 -1.984 14
30.34 -15.146 -0.037 15
31.424999 -15.759 1.082 28
52.061001 -25.768 -0.995 38
30.257999 -15.042 0.50300002 12
31.32 -15.654 1.675 30
12.228 -5.9899998 -0.46200001 4
30.761 -15.109 -0.030999999 9
30.889 -15.24 1.066 14
8.8909998 -4.329 -0.167 3
31.073 -15.193 0.51999998 11
23.775 -11.687 1.272 3
8.7860003 -4.2329998 -0.329 29
8.8450003 -4.2740002 -0.0070000002 2
12.346 -5.9920001 0.42699999 0
8.8079996 -4.2189999 -0.164 26
8.9099998 -4.2849998 0.15000001 0
12.371 -5.9809999 0.66100001 0
8.7329998 -4.138 -0.32499999 26
8.8249998 -4.1919999 -0.0060000001 44
12.338 -5.8870001 0.42699999 139
8.7679996 -4.1290002 -0.161 31
8.8330002 -4.178 0.149 36
12.39 -5.8909998 0.662 28
8.7349997 -4.0700002 -0.32300001 34
8.8000002 -4.1110001 -0.0049999999 30
8.8430004 -4.1490002 0.30599999 39
8.7580004 -4.0549998 -0.16 30
8.7609997 -4.073 0.149 27
8.9200001 -4.1680002 0.47600001 31
8.7559996 -4.0089998 -0.322 46
8.7639999 -4.0250001 -0.0040000002 35
8.8129997 -4.0650001 0.30500001 37
8.7449999 -3.98 -0.15800001 48
8.7620001 -4.0050001 0.149 41
8.8669996 -4.073 0.47299999 53
8.7709999 -3.948 -0.32100001 41
8.7600002 -3.9530001 -0.003 70
8.7410002 -3.9619999 0.30199999 40
8.79 -3.931 -0.15800001 40
8.7659998 -3.938 0.149 66
8.8789997 -4.0079999 0.472 39
8.783 -3.885 -0.31900001 49
8.8260002 -3.915 -0.0020000001 29
8.7869997 -3.914 0.303 47
8.823 -3.878 -0.15700001 40
8.8190002 -3.891 0.15000001 46
8.8470001 -3.9230001 0.47 44
8.835 -3.839 -0.31999999 43
8.8699999 -3.865 -0.0020000001 45
8.8479996 -3.872 0.30500001 48
8.8690004 -3.8299999 -0.15700001 38
8.8879995 -3.8529999 0.15099999 68
8.875 -3.8670001 0.47 52
52.082001 -22.232 -1.882 29
8.9510002 -3.8310001 -0.0020000001 20
8.9219999 -3.8340001 0.30700001 46
52.150002 -22.114 -0.92400002 34
9.0570002 -3.8559999 0.154 11
8.9329996 -3.823 0.472 52
34.012001 -14.26 -1.225 10
52.193001 -21.938999 -0.011 38
9.0380001 -3.8150001 0.31 1
52.175999 -21.726999 -0.921 36
38.047001 -15.904 0.64700001 3
9.1070004 -3.825 0.47999999 37
34.214001 -14.081 -1.228 18
52.188999 -21.539 -0.011 39
30.740999 -12.739 1.053 8
34.813999 -14.233 -0.61299998 3
37.905998 -15.556 0.64300001 10
24.944 -10.286 1.312 32
34.436001 -13.912 -1.234 19
38.363998 -15.538 -0.0089999996 7
30.652 -12.464 1.0470001 14
38.387001 -15.4 -0.67500001 16
38.199001 -15.387 0.64499998 18
25.128 -10.169 1.317 21
34.613998 -13.724 -1.238 4
38.404999 -15.264 -0.0099999998 23
37.827999 -15.095 1.2869999 28
38.492001 -15.153 -0.676 17
24.905001 -9.8409996 0.41800001 0
25.320999 -10.052 1.323 11
53.880001 -20.959 -1.925 18
38.681 -15.084 -0.011 9
30.836 -12.072 1.045 9
38.912998 -15.028 -0.68300003 6
24.481001 -9.4890003 0.40900001 29
25.792 -10.043 1.3430001 25
33.741001 -12.871 -1.2029999 15
41.651001 -15.927 -0.014 23
25.156 -9.6560001 0.84899998 16
33.587002 -12.72 -0.59100002 5
24.471001 -9.302 0.40599999 35
25.101 -9.585 1.302 2
33.480999 -12.525 -1.193 20
41.529999 -15.572 -0.017000001 5
26.289 -9.8950005 0.88300002 36
26.763 -9.9370003 -0.47099999 4
24.677999 -9.1949997 0.40700001 34
25.476999 -9.5340004 1.316 24
33.629002 -12.331 -1.199 28
25.855 -9.5030003 -0.012 0
25.042999 -9.2390003 0.83700001 32
25.868 -9.4139996 -0.456 20
24.902 -9.0939999 0.40799999 29
24.264 -8.8990002 1.248 32
25.889 -9.302 -0.92199999 28
25.464001 -9.1689997 -0.014 32
25.337 -9.1569996 0.84299999 34
26.410999 -9.4239998 -0.46700001 35
25.087999 -8.9829998 0.40799999 29
24.358 -8.7589998 1.248 21
25.867001 -9.1199999 -0.921 24
25.714001 -9.092 -0.017000001 21
25.434 -9.033 0.84200001 21
26.492001 -9.2889996 -0.46900001 8
25.259001 -8.8929996 0.40799999 38
24.493999 -8.6680002 1.25 39
26.826 -9.3070002 -0.95700002 8
25.096001 -8.7320004 -0.017999999 15
26.030001 -9.0979996 0.85799998 20
27.009001 -9.3170004 -0.47999999 31
25.417 -8.8059998 0.40700001 43
24.525 -8.54 1.247 38
26.628 -9.0889997 -0.949 3
