# .PCD v0.7 - Point Cloud Data file format
VERSION 0.7
FIELDS x y z intensity
SIZE 4 4 4 4
TYPE F F F F
COUNT 1 1 1 1
WIDTH 1544
HEIGHT 1
VIEWPOINT 0 0 0 1 0 0 0
POINTS 1544
DATA ascii
8.6780005 2.221 -1.096 17
3.2049999 0.84299999 -0.69099998 17
4.2659998 1.1 -0.76300001 16
6.4400001 1.633 -0.92799997 15
3.6059999 0.92699999 -0.708 20
5.1300001 1.294 -0.82700002 14
8.7580004 2.177 -1.101 17
3.221 0.82200003 -0.69199997 18
4.2930002 1.074 -0.76499999 16
6.4819999 1.596 -0.93000001 13
3.6170001 0.90200001 -0.708 20
5.1799998 1.268 -0.83099997 15
8.8000002 2.122 -1.102 17
3.234 0.80000001 -0.69300002 18
4.3179998 1.048 -0.76599997 15
6.52 1.556 -0.93199998 13
3.6229999 0.87599999 -0.70599997 19
5.1880002 1.2309999 -0.82999998 15
8.901 2.0810001 -1.11 17
3.2479999 0.77899998 -0.69300002 18
4.336 1.02 -0.76700002 15
6.5890002 1.524 -0.93800002 14
3.625 0.84899998 -0.704 16
5.2249999 1.201 -0.83200002 16
9.0279999 2.0439999 -1.122 17
3.2639999 0.75800002 -0.69499999 19
4.3559999 0.99199998 -0.76800001 16
6.6269999 1.484 -0.94 14
3.6270001 0.82200003 -0.70300001 17
5.257 1.17 -0.83499998 17
9.1920004 2.0139999 -1.137 16
3.2780001 0.736 -0.69499999 19
4.3800001 0.96399999 -0.76899999 15
6.6550002 1.441 -0.94099998 13
3.6340001 0.79699999 -0.70200002 16
5.2820001 1.136 -0.83600003 16
9.3310003 1.977 -1.15 18
3.2880001 0.713 -0.69499999 19
4.4000001 0.93599999 -0.76999998 15
6.6989999 1.402 -0.94400001 16
3.6400001 0.77100003 -0.69999999 19
5.3200002 1.105 -0.83899999 16
9.415 1.927 -1.156 17
3.303 0.69199997 -0.69599998 20
4.4190001 0.90700001 -0.77100003 16
6.7459998 1.363 -0.94700003 12
3.6400001 0.74400002 -0.69800001 19
5.3369999 1.0700001 -0.83899999 16
9.4399996 1.864 -1.155 13
3.3169999 0.67000002 -0.69700003 20
4.4499998 0.88099998 -0.77399999 17
6.7729998 1.319 -0.94800001 15
3.648 0.71799999 -0.69800001 16
5.3670001 1.0369999 -0.84100002 17
9.2410002 1.7589999 -1.127 12
3.3239999 0.64600003 -0.69599998 16
4.467 0.852 -0.77499998 16
6.8270001 1.28 -0.95200002 12
3.6459999 0.69099998 -0.69499999 19
5.401 1.0039999 -0.84399998 16
9.283 1.7 -1.128 13
3.342 0.625 -0.69800001 20
4.4780002 0.82099998 -0.77399999 16
6.868 1.239 -0.95499998 13
3.6489999 0.66399997 -0.69400001 17
5.4169998 0.96799999 -0.84299999 17
9.4860001 1.669 -1.149 13
3.348 0.60100001 -0.69700003 21
4.4889998 0.79000002 -0.77399999 16
6.8969998 1.194 -0.95599997 13
3.6589999 0.639 -0.69400001 18
5.4450002 0.93300003 -0.84500003 16
9.5430002 1.612 -1.152 12
3.365 0.579 -0.699 21
4.4970002 0.759 -0.773 16
6.9349999 1.151 -0.958 14
3.658 0.61199999 -0.69099998 19
5.4660001 0.898 -0.84600002 17
9.5719995 1.548 -1.152 12
3.375 0.55599999 -0.699 23
4.513 0.72899997 -0.77399999 15
6.9920001 1.1109999 -0.963 13
3.665 0.58700001 -0.69099998 16
5.4920001 0.86299998 -0.84799999 16
9.6540003 1.494 -1.158 13
3.3870001 0.53299999 -0.69999999 20
4.5289998 0.699 -0.77399999 16
7.026 1.066 -0.96499997 15
3.6730001 0.56199998 -0.69099998 14
5.5170002 0.82700002 -0.84899998 17
9.71 1.4349999 -1.161 13
3.4030001 0.51099998 -0.70200002 19
4.539 0.66799998 -0.77399999 15
7.0440001 1.02 -0.96499997 17
3.677 0.53600001 -0.69 3
5.5549998 0.79299998 -0.85299999 16
9.7290001 1.369 -1.16 13
3.414 0.48800001 -0.70200002 21
4.5570002 0.63800001 -0.77499998 15
7.0799999 0.97500002 -0.96700001 17
3.6800001 0.50999999 -0.68900001 3
5.5749998 0.75700003 -0.85399997 17
9.776 1.307 -1.1619999 12
3.428 0.465 -0.70300001 21
4.5669999 0.60699999 -0.77499998 15
7.1209998 0.93000001 -0.97000003 16
3.6860001 0.484 -0.68800002 3
5.5739999 0.71799999 -0.852 15
9.8310003 1.247 -1.166 12
3.434 0.44100001 -0.70300001 21
4.585 0.57700002 -0.77600002 16
7.152 0.884 -0.972 18
3.688 0.458 -0.68699998 4
5.6059999 0.68199998 -0.85399997 16
9.8940001 1.1849999 -1.17 13
3.4519999 0.41800001 -0.70499998 20
4.592 0.54500002 -0.77600002 16
7.1849999 0.83899999 -0.97399998 15
3.707 0.43399999 -0.68900001 3
5.6300001 0.64499998 -0.85600001 15
9.9110003 1.119 -1.169 12
3.461 0.39399999 -0.70599997 22
4.6100001 0.514 -0.77700001 15
7.1989999 0.78899997 -0.97399998 17
3.7160001 0.40799999 -0.69 3
5.652 0.60799998 -0.85799998 15
9.9820004 1.058 -1.175 13
3.4690001 0.37 -0.70599997 21
4.618 0.48300001 -0.77700001 16
7.2290001 0.74299997 -0.97600001 13
3.7479999 0.38499999 -0.69400001 3
5.665 0.56999999 -0.85799998 15
10.016 0.99199998 -1.176 13
3.4760001 0.34599999 -0.70599997 22
4.6459999 0.45300001 -0.77999997 15
7.2670002 0.69599998 -0.97899997 17
3.743 0.35800001 -0.69199997 5
5.6739998 0.53100002 -0.85799998 15
10.011 0.92299998 -1.173 12
3.4779999 0.32100001 -0.70499998 22
4.6459999 0.41999999 -0.77899998 14
7.296 0.648 -0.98100001 14
3.7520001 0.33199999 -0.69199997 6
5.698 0.49399999 -0.86000001 14
10.083 0.86000001 -1.179 13
3.497 0.29800001 -0.708 24
4.6490002 0.38800001 -0.778 15
7.316 0.60000002 -0.98199999 15
3.816 0.31099999 -0.70300001 4
5.6999998 0.454 -0.85900003 14
10.124 0.79400003 -1.182 13
3.5050001 0.27399999 -0.70899999 21
4.6589999 0.35600001 -0.77899998 15
7.336 0.551 -0.98299998 14
3.8559999 0.287 -0.70999998 3
5.737 0.417 -0.86299998 13
10.15 0.727 -1.183 13
3.5050001 0.249 -0.708 20
4.684 0.32499999 -0.78200001 19
7.3610001 0.50099999 -0.98500001 13
3.8710001 0.26100001 -0.71100003 6
5.7249999 0.377 -0.86000001 14
10.17 0.65899998 -1.183 13
3.493 0.223 -0.704 18
4.6960001 0.294 -0.78200001 16
7.3600001 0.45100001 -0.98299998 13
3.865 0.233 -0.70899999 6
5.7329998 0.33700001 -0.86000001 14
10.171 0.58899999 -1.181 13
3.4990001 0.199 -0.70499998 18
4.7059999 0.26199999 -0.78299999 19
7.3870001 0.40200001 -0.98500001 13
3.9230001 0.20900001 -0.71899998 6
5.7459998 0.29899999 -0.861 13
10.216 0.52200001 -1.1849999 13
3.4990001 0.17399999 -0.704 16
4.7150002 0.229 -0.78399998 18
7.401 0.352 -0.986 13
3.911 0.18099999 -0.71600002 6
5.7680001 0.26100001 -0.86299998 13
10.254 0.45500001 -1.187 13
3.5079999 0.15000001 -0.70499998 13
4.7140002 0.197 -0.78299999 17
7.4060001 0.30199999 -0.98500001 12
3.8759999 0.153 -0.70899999 9
5.7589998 0.22 -0.861 13
10.23 0.38499999 -1.183 13
3.4949999 0.125 -0.70200002 11
4.7309999 0.16500001 -0.78500003 20
7.4369998 0.25299999 -0.98799998 12
3.911 0.127 -0.71499997 7
5.7729998 0.18099999 -0.86199999 13
10.259 0.31600001 -1.1849999 14
3.51 0.101 -0.704 15
4.7179999 0.132 -0.78200001 17
7.4260001 0.20200001 -0.986 12
3.796 0.097000003 -0.69300002 9
5.7859998 0.142 -0.86299998 13
10.275 0.24699999 -1.186 14
3.5090001 0.075999998 -0.704 18
4.7189999 0.098999999 -0.78200001 17
7.4359999 0.15099999 -0.986 12
3.7420001 0.068999998 -0.68300003 9
5.7849998 0.102 -0.86199999 13
10.274 0.177 -1.1849999 13
3.5209999 0.052000001 -0.70599997 27
4.7210002 0.066 -0.78100002 18
7.4419999 0.101 -0.986 13
3.7449999 0.043000001 -0.68300003 11
5.7839999 0.063000001 -0.86199999 13
10.264 0.108 -1.183 13
3.5239999 0.027000001 -0.70599997 21
4.73 0.034000002 -0.78299999 19
7.4489999 0.050000001 -0.98699999 12
3.783 0.017000001 -0.69 14
5.7919998 0.023 -0.86199999 13
10.271 0.037999999 -1.182 13
3.5190001 0.0020000001 -0.70499998 22
4.724 0.001 -0.78100002 18
7.4650002 0 -0.98799998 12
3.7980001 -0.0080000004 -0.69199997 12
5.756 -0.016000001 -0.85699999 14
10.247 -0.029999999 -1.179 12
3.5239999 -0.021 -0.70499998 23
4.7360001 -0.029999999 -0.78299999 21
7.4970002 -0.050999999 -0.99199998 12
4.0029998 -0.035999998 -0.72899997 12
5.7680001 -0.055 -0.85799998 15
10.2 -0.097999997 -1.173 12
3.5190001 -0.046 -0.704 26
4.7319999 -0.063000001 -0.78200001 19
7.4970002 -0.102 -0.99199998 12
3.964 -0.063000001 -0.722 14
5.7919998 -0.094999999 -0.861 13
10.196 -0.168 -1.1720001 12
3.5220001 -0.071000002 -0.70499998 26
4.724 -0.094999999 -0.78100002 17
7.5040002 -0.153 -0.99199998 12
4.0440001 -0.093000002 -0.73699999 12
5.7800002 -0.13500001 -0.86000001 14
10.195 -0.236 -1.1720001 12
3.513 -0.094999999 -0.70300001 21
4.7280002 -0.12800001 -0.78100002 18
7.5050001 -0.204 -0.99299997 12
4.072 -0.122 -0.74199998 13
5.8080001 -0.175 -0.86400002 13
10.188 -0.30500001 -1.171 12
3.5209999 -0.12 -0.70499998 24
4.7259998 -0.161 -0.78100002 16
7.52 -0.255 -0.99400002 12
4.0840001 -0.15099999 -0.74400002 14
5.796 -0.214 -0.86199999 14
10.183 -0.373 -1.171 11
3.5239999 -0.145 -0.70499998 26
4.7249999 -0.193 -0.78100002 18
7.5370002 -0.30700001 -0.99699998 12
4.0939999 -0.17900001 -0.74599999 15
5.8189998 -0.255 -0.86500001 12
10.183 -0.442 -1.171 11
3.5220001 -0.169 -0.70499998 26
4.71 -0.22499999 -0.77899998 17
7.54 -0.35800001 -0.99699998 12
4.1220002 -0.20900001 -0.75099999 16
5.8119998 -0.294 -0.86500001 13
10.18 -0.50999999 -1.171 12
3.5209999 -0.19400001 -0.70499998 26
4.71 -0.257 -0.77899998 19
7.5560002 -0.41100001 -1 12
4.119 -0.23800001 -0.75099999 14
5.8210001 -0.33500001 -0.866 11
10.184 -0.57999998 -1.171 12
3.5220001 -0.219 -0.70599997 26
4.7090001 -0.28999999 -0.77899998 18
7.5359998 -0.46000001 -0.99800003 11
4.1269999 -0.26699999 -0.75300002 13
5.8969998 -0.37900001 -0.87800002 9
10.226 -0.65100002 -1.177 12
3.5090001 -0.242 -0.70300001 22
4.698 -0.322 -0.77700001 18
7.5370002 -0.51200002 -0.99800003 11
4.1360002 -0.296 -0.755 15
5.8930001 -0.419 -0.87800002 9
10.14 -0.71399999 -1.168 11
3.52 -0.26800001 -0.70599997 26
4.6929998 -0.354 -0.77700001 16
7.5289998 -0.56300002 -0.99800003 11
4.1339998 -0.32499999 -0.755 16
5.8499999 -0.456 -0.87199998 12
10.179 -0.78500003 -1.173 12
3.52 -0.29300001 -0.70700002 23
4.6789999 -0.38499999 -0.77499998 17
7.5300002 -0.61400002 -0.99900001 11
4.1240001 -0.35299999 -0.75400001 16
5.8769999 -0.49900001 -0.87699997 11
10.171 -0.85399997 -1.173 12
3.5090001 -0.31600001 -0.70499998 25
4.6810002 -0.417 -0.77600002 15
7.5250001 -0.66500002 -0.99900001 12
4.1409998 -0.38299999 -0.75700003 18
5.8449998 -0.53600001 -0.87300003 12
10.179 -0.92299998 -1.175 13
3.507 -0.34099999 -0.70499998 24
4.6830001 -0.44999999 -0.77700001 16
7.5279999 -0.71600002 -1 13
4.1170001 -0.40900001 -0.75400001 14
5.8759999 -0.579 -0.87800002 13
10.167 -0.991 -1.174 13
3.517 -0.366 -0.708 21
4.7049999 -0.484 -0.78200001 20
7.5139999 -0.76599997 -0.99900001 13
4.1259999 -0.43900001 -0.75599998 17
5.8940001 -0.62099999 -0.88200003 12
10.215 -1.0650001 -1.181 14
3.5020001 -0.38999999 -0.70499998 25
4.704 -0.51700002 -0.78200001 23
7.4959998 -0.815 -0.99800003 13
4.1220002 -0.46700001 -0.75599998 13
5.9070001 -0.66299999 -0.884 13
10.026 -1.113 -1.16 14
3.507 -0.41499999 -0.70700002 22
4.743 -0.55400002 -0.79000002 25
7.4879999 -0.866 -0.99800003 13
4.1220002 -0.49599999 -0.75700003 16
5.8850002 -0.70099998 -0.88200003 12
10.139 -1.194 -1.175 13
3.5190001 -0.44100001 -0.71100003 5
4.7459998 -0.58700001 -0.79100001 19
7.48 -0.91600001 -0.99800003 12
4.125 -0.52499998 -0.75800002 15
5.9050002 -0.745 -0.88599998 11
10.114 -1.26 -1.173 13
3.5150001 -0.465 -0.71100003 4
4.744 -0.62 -0.792 18
7.4640002 -0.96499997 -0.99699998 11
4.1220002 -0.55400002 -0.759 13
5.8979998 -0.78399998 -0.88599998 11
10.041 -1.319 -1.166 13
3.5109999 -0.49000001 -0.71100003 4
4.7360001 -0.65200001 -0.79100001 18
7.4689999 -1.017 -0.99900001 11
4.1149998 -0.58200002 -0.75800002 12
5.9109998 -0.82700002 -0.889 10
9.9540005 -1.376 -1.158 12
3.5120001 -0.51499999 -0.71200001 4
4.7410002 -0.685 -0.79299998 18
7.4559999 -1.066 -0.99900001 11
4.1199999 -0.611 -0.76099998 13
5.9099998 -0.86799997 -0.89099997 11
9.9040003 -1.436 -1.154 12
3.5209999 -0.54100001 -0.71499997 6
4.743 -0.71899998 -0.79500002 18
7.4219999 -1.112 -0.995 11
4.125 -0.64099997 -0.76300001 13
5.9229999 -0.91000003 -0.89399999 10
9.8889999 -1.501 -1.154 11
3.506 -0.56400001 -0.713 5
4.7490001 -0.75300002 -0.79699999 17
7.408 -1.161 -0.995 10
4.1199999 -0.66900003 -0.76300001 12
5.914 -0.94999999 -0.89399999 11
9.9390001 -1.577 -1.161 12
3.503 -0.588 -0.713 4
4.7470002 -0.78600001 -0.79799998 17
7.382 -1.2079999 -0.99299997 11
4.1149998 -0.69800001 -0.76300001 12
5.9050002 -0.99000001 -0.89399999 12
9.9049997 -1.64 -1.159 12
3.5150001 -0.61500001 -0.71700001 6
4.75 -0.81999999 -0.80000001 17
7.3429999 -1.252 -0.99000001 11
4.1170001 -0.727 -0.76499999 12
5.9169998 -1.033 -0.89700001 12
9.8710003 -1.701 -1.1569999 12
3.507 -0.639 -0.71700001 3
4.7470002 -0.85299999 -0.801 15
7.3460002 -1.304 -0.99199998 10
4.1069999 -0.75400001 -0.764 13
5.9229999 -1.075 -0.89999998 11
9.8280001 -1.762 -1.154 11
3.4990001 -0.662 -0.71600002 4
4.7410002 -0.88499999 -0.801 13
7.3309999 -1.352 -0.99199998 10
4.1090002 -0.78399998 -0.76599997 12
5.8899999 -1.11 -0.89600003 11
9.7670002 -1.818 -1.149 11
3.4960001 -0.68699998 -0.71700001 6
4.73 -0.91600001 -0.801 14
7.3260002 -1.402 -0.99199998 10
4.1079998 -0.81300002 -0.76700002 12
5.9000001 -1.153 -0.89999998 12
9.7580004 -1.883 -1.15 11
3.4909999 -0.71100003 -0.71700001 4
4.7290001 -0.949 -0.80199999 12
7.3189998 -1.451 -0.99299997 10
4.098 -0.83999997 -0.76700002 11
5.8870001 -1.192 -0.89899999 11
9.7419996 -1.948 -1.151 11
3.4920001 -0.736 -0.71899998 5
4.7280002 -0.98199999 -0.80299997 14
7.277 -1.493 -0.99000001 10
4.098 -0.86900002 -0.76800001 12
5.8660002 -1.229 -0.898 11
9.7410002 -2.0150001 -1.153 12
3.4760001 -0.75800002 -0.71700001 3
4.7119999 -1.012 -0.80199999 12
7.2480001 -1.538 -0.98799998 10
4.0890002 -0.89700001 -0.76800001 12
5.875 -1.272 -0.90100002 12
9.7799997 -2.0910001 -1.16 12
3.4879999 -0.78600001 -0.72100002 6
4.7150002 -1.0470001 -0.80400002 12
7.2610002 -1.592 -0.991 10
4.092 -0.92699999 -0.76999998 11
5.8429999 -1.307 -0.898 12
9.7889996 -2.161 -1.163 13
3.484 -0.81 -0.722 5
4.7080002 -1.079 -0.80500001 11
7.2049999 -1.63 -0.986 11
4.079 -0.95300001 -0.76899999 12
5.849 -1.349 -0.89999998 9
10.16 -2.3139999 -1.21 17
3.473 -0.833 -0.72100002 4
4.7080002 -1.112 -0.80599999 10
7.1849999 -1.676 -0.98500001 10
4.0749998 -0.98100001 -0.76999998 12
5.8299999 -1.386 -0.89899999 11
10.292 -2.415 -1.228 18
3.4749999 -0.85900003 -0.722 3
4.7119999 -1.147 -0.80900002 11
7.191 -1.728 -0.98799998 9
4.0669999 -1.0089999 -0.76999998 13
5.8429999 -1.431 -0.903 11
10.139 -2.45 -1.212 16
3.4630001 -0.88099998 -0.722 5
4.7049999 -1.179 -0.80900002 11
7.178 -1.775 -0.98799998 10
4.0580001 -1.036 -0.76999998 12
5.8319998 -1.47 -0.90399998 12
10.021 -2.4920001 -1.201 18
3.457 -0.90499997 -0.722 7
4.7030001 -1.212 -0.81 12
7.1350002 -1.8150001 -0.98400003 10
4.0279999 -1.058 -0.76599997 12
5.8070002 -1.505 -0.90100002 13
9.9770002 -2.5510001 -1.198 19
3.451 -0.92900002 -0.722 23
4.6859999 -1.242 -0.80900002 13
7.1560001 -1.872 -0.98900002 11
4.0489998 -1.0930001 -0.77200001 12
5.7919998 -1.5420001 -0.90100002 13
9.9919996 -2.625 -1.202 23
3.4530001 -0.95499998 -0.72399998 20
4.6680002 -1.271 -0.80800003 16
7.2280002 -1.942 -1.001 9
4.0640001 -1.127 -0.77600002 14
5.7859998 -1.582 -0.90200001 12
9.8879995 -2.668 -1.192 21
3.454 -0.98100001 -0.72600001 16
4.6570001 -1.301 -0.80800003 16
7.1570001 -1.973 -0.99299997 12
4.0689998 -1.1569999 -0.77899998 16
5.7969999 -1.627 -0.90600002 13
9.684 -2.681 -1.17 17
3.4519999 -1.006 -0.727 18
4.6659999 -1.3380001 -0.81099999 12
7.1690001 -2.0280001 -0.99699998 12
4.0619998 -1.1849999 -0.77899998 15
5.7550001 -1.6569999 -0.90100002 13
9.4329996 -2.678 -1.142 17
3.448 -1.03 -0.72799999 19
4.665 -1.3710001 -0.81300002 12
7.2179999 -2.0929999 -1.006 12
4.0650001 -1.216 -0.78100002 15
5.7259998 -1.6900001 -0.898 13
9.2270002 -2.6860001 -1.119 17
3.438 -1.053 -0.72799999 22
4.6589999 -1.404 -0.81300002 15
7.2509999 -2.155 -1.013 12
4.0580001 -1.244 -0.78200001 19
5.7290001 -1.732 -0.90100002 13
8.9940004 -2.6819999 -1.0930001 18
3.4400001 -1.079 -0.73000002 16
4.6479998 -1.434 -0.81300002 14
7.263 -2.211 -1.017 14
4.0450001 -1.27 -0.78100002 19
5.7199998 -1.771 -0.90100002 13
8.7360001 -2.6670001 -1.064 18
3.4419999 -1.105 -0.73199999 17
4.651 -1.469 -0.815 14
7.2579999 -2.2620001 -1.018 17
4.0320001 -1.296 -0.77999997 15
5.6799998 -1.8 -0.89700001 15
8.4650002 -2.6459999 -1.033 15
3.4389999 -1.13 -0.73299998 19
4.6300001 -1.497 -0.81300002 12
7.1880002 -2.2920001 -1.01 21
4.0349998 -1.327 -0.78299999 17
5.6440001 -1.83 -0.89300001 16
8.1149998 -2.595 -0.99199998 39
3.4300001 -1.153 -0.73299998 20
4.631 -1.531 -0.815 14
7.1259999 -2.3239999 -1.003 22
4.026 -1.354 -0.78299999 17
5.6240001 -1.864 -0.89099997 14
8.0500002 -2.631 -0.986 16
3.4330001 -1.1799999 -0.73500001 15
4.6240001 -1.563 -0.81599998 15
7.0799999 -2.3599999 -0.99900001 21
3.9890001 -1.3710001 -0.77700001 16
5.6350002 -1.91 -0.89499998 12
7.862 -2.6270001 -0.96499997 15
3.424 -1.2029999 -0.73400003 15
4.6220002 -1.597 -0.81699997 15
7.0289998 -2.395 -0.99299997 21
3.997 -1.404 -0.77999997 15
5.612 -1.943 -0.89300001 12
7.6700001 -2.618 -0.94300002 15
3.4189999 -1.227 -0.73500001 15
4.6059999 -1.626 -0.81599998 14
6.9899998 -2.4330001 -0.99000001 22
3.983 -1.429 -0.77899998 15
5.5949998 -1.979 -0.89200002 12
7.4840002 -2.609 -0.921 26
3.415 -1.252 -0.736 17
4.5929999 -1.655 -0.815 14
6.973 -2.4779999 -0.98900002 21
3.9860001 -1.46 -0.78100002 15
5.579 -2.0139999 -0.89099997 14
7.2950001 -2.5969999 -0.89899999 22
3.4189999 -1.279 -0.73799998 19
4.5929999 -1.689 -0.81699997 15
6.9039998 -2.5039999 -0.98100001 26
3.9790001 -1.488 -0.78100002 17
5.5999999 -2.063 -0.89600003 14
7.138 -2.5929999 -0.88099998 16
3.415 -1.304 -0.73900002 18
4.579 -1.719 -0.81599998 15
6.8649998 -2.5409999 -0.977 27
3.9579999 -1.51 -0.77899998 22
5.665 -2.1289999 -0.90799999 15
6.9699998 -2.582 -0.86199999 15
3.4059999 -1.327 -0.73799998 16
4.5669999 -1.749 -0.815 15
6.79 -2.563 -0.96799999 30
3.9649999 -1.543 -0.78200001 15
5.6599998 -2.1700001 -0.90899998 17
6.822 -2.5780001 -0.84500003 16
3.4119999 -1.355 -0.741 17
4.5570002 -1.779 -0.815 17
6.658 -2.562 -0.94999999 24
3.9790001 -1.5779999 -0.78600001 17
5.6690001 -2.2149999 -0.912 20
6.677 -2.572 -0.82800001 22
3.4059999 -1.3789999 -0.741 22
4.5450001 -1.809 -0.81400001 16
6.5339999 -2.563 -0.93400002 22
3.835 -1.551 -0.759 18
5.6030002 -2.2309999 -0.903 21
6.54 -2.5669999 -0.81199998 22
3.398 -1.402 -0.741 20
4.5380001 -1.84 -0.81400001 17
6.3990002 -2.5580001 -0.91600001 19
3.8269999 -1.577 -0.759 17
5.5609999 -2.257 -0.89700001 21
6.4070001 -2.563 -0.796 25
3.382 -1.4220001 -0.73900002 12
4.5180001 -1.8660001 -0.81199998 22
6.2649999 -2.55 -0.898 18
3.9130001 -1.642 -0.77700001 14
5.5149999 -2.279 -0.89099997 19
6.276 -2.556 -0.78100002 27
3.3900001 -1.452 -0.74199998 9
4.4889998 -1.8890001 -0.80800003 23
6.0599999 -2.513 -0.86900002 23
3.7490001 -1.603 -0.74599999 18
5.4879999 -2.3099999 -0.88800001 20
6.152 -2.552 -0.76599997 26
3.381 -1.474 -0.741 9
4.4720001 -1.916 -0.80599999 21
5.9310002 -2.503 -0.852 31
3.803 -1.655 -0.75800002 18
5.448 -2.3340001 -0.88200003 21
6.1259999 -2.5869999 -0.76300001 28
3.3800001 -1.501 -0.74299997 9
4.5279999 -1.974 -0.81699997 14
5.8369999 -2.5079999 -0.83899999 23
3.651 -1.617 -0.72799999 26
5.4070001 -2.3570001 -0.87699997 29
6.0910001 -2.6170001 -0.759 29
3.3789999 -1.526 -0.74299997 12
4.553 -2.02 -0.82300001 14
5.777 -2.5250001 -0.83099997 21
3.72 -1.676 -0.74299997 20
5.362 -2.3789999 -0.87 36
6.0320001 -2.6359999 -0.75199997 41
3.381 -1.554 -0.745 9
4.5879998 -2.0710001 -0.82999998 14
5.6820002 -2.527 -0.81800002 18
3.8659999 -1.772 -0.773 19
5.3629999 -2.4200001 -0.87099999 28
3.3759999 -1.5779999 -0.745 7
4.5949998 -2.109 -0.83200002 17
5.5689998 -2.5179999 -0.80199999 20
3.8740001 -1.806 -0.77600002 31
5.335 -2.448 -0.86699998 35
6.9460001 -3.1400001 -0.866 58
3.3740001 -1.604 -0.74599999 8
4.5960002 -2.145 -0.833 16
5.4679999 -2.5139999 -0.78799999 19
3.9170001 -1.8559999 -0.78500003 24
5.2729998 -2.4590001 -0.85699999 32
6.3299999 -2.9089999 -0.78899997 46
3.3610001 -1.624 -0.74400002 9
4.586 -2.1760001 -0.83200002 21
5.3720002 -2.51 -0.77399999 20
3.921 -1.8890001 -0.787 15
5.2449999 -2.487 -0.85299999 32
5.7639999 -2.6919999 -0.71799999 45
3.3770001 -1.659 -0.74800003 11
4.5650001 -2.201 -0.829 21
5.2839999 -2.5090001 -0.76099998 36
3.9230001 -1.92 -0.78799999 14
5.0669999 -2.441 -0.82499999 37
5.7020001 -2.7060001 -0.70999998 52
3.3759999 -1.6849999 -0.74900001 19
4.5599999 -2.234 -0.82800001 21
5.1729999 -2.4960001 -0.745 28
3.9189999 -1.949 -0.78799999 14
4.9889998 -2.441 -0.81199998 51
5.7969999 -2.7939999 -0.72100002 60
3.3499999 -1.698 -0.74299997 8
4.5380001 -2.2579999 -0.824 22
5.0960002 -2.497 -0.73400003 31
3.9070001 -1.973 -0.78600001 14
4.9860001 -2.4790001 -0.81199998 28
5.7839999 -2.832 -0.71899998 61
3.349 -1.724 -0.74400002 11
4.5320001 -2.29 -0.824 24
4.9640002 -2.47 -0.71399999 38
3.9219999 -2.0120001 -0.78899997 14
4.9060001 -2.4760001 -0.79799998 32
5.619 -2.793 -0.69800001 38
3.368 -1.761 -0.74900001 17
4.5120001 -2.3150001 -0.81999999 23
4.9299998 -2.4909999 -0.70899999 35
3.8929999 -2.027 -0.78399998 14
4.835 -2.477 -0.787 19
5.6849999 -2.868 -0.70499998 31
3.362 -1.784 -0.74800003 12
4.5019999 -2.3440001 -0.81800002 22
4.8590002 -2.4920001 -0.69800001 34
3.9119999 -2.0680001 -0.78799999 14
4.7410002 -2.4660001 -0.77100003 19
5.2919998 -2.711 -0.65499997 50
3.3570001 -1.808 -0.74699998 8
4.5089998 -2.3829999 -0.81900001 27
4.7849998 -2.49 -0.68699998 29
3.9130001 -2.098 -0.78799999 21
4.6719999 -2.4649999 -0.759 20
5.1440001 -2.6730001 -0.63599998 47
3.3740001 -1.844 -0.75099999 3
4.4759998 -2.4000001 -0.81300002 23
4.7379999 -2.5009999 -0.67900002 29
3.8940001 -2.119 -0.78399998 19
4.6009998 -2.4630001 -0.74699998 20
4.9809999 -2.6259999 -0.61400002 60
3.3670001 -1.867 -0.74900001 3
4.4590001 -2.4260001 -0.80900002 29
4.7420001 -2.539 -0.67900002 29
3.9070001 -2.1559999 -0.78600001 18
4.5419998 -2.4660001 -0.736 32
4.9679999 -2.6559999 -0.611 49
3.382 -1.902 -0.75300002 28
4.4060001 -2.431 -0.79900002 24
4.7480001 -2.5780001 -0.67799997 41
3.9000001 -2.1830001 -0.78399998 19
4.4489999 -2.4489999 -0.72000003 24
4.914 -2.664 -0.60299999 41
3.3829999 -1.929 -0.75300002 25
4.3520002 -2.434 -0.78799999 26
4.7820001 -2.6329999 -0.68199998 47
3.8859999 -2.2049999 -0.78100002 20
4.381 -2.4449999 -0.708 30
5.0370002 -2.7690001 -0.616 32
3.382 -1.955 -0.75199997 21
4.2979999 -2.437 -0.778 21
4.9660001 -2.7720001 -0.70599997 51
3.8870001 -2.2360001 -0.78100002 19
4.3270001 -2.448 -0.69800001 37
4.9180002 -2.74 -0.60000002 56
3.392 -1.987 -0.75400001 22
4.2360001 -2.434 -0.76499999 17
5.0580001 -2.8610001 -0.71700001 60
3.8759999 -2.26 -0.778 21
4.2639999 -2.4449999 -0.68699998 39
5.0469999 -2.8499999 -0.61299998 33
3.405 -2.0209999 -0.75599998 12
4.177 -2.4330001 -0.75300002 17
5.2449999 -3.007 -0.74199998 40
3.8729999 -2.2880001 -0.77600002 21
4.1989999 -2.4400001 -0.67500001 34
4.6599998 -2.6659999 -0.56400001 35
3.461 -2.082 -0.76800001 24
4.118 -2.4289999 -0.741 17
4.8449998 -2.8139999 -0.68300003 42
3.869 -2.3150001 -0.77399999 21
4.145 -2.4389999 -0.66399997 36
4.5619998 -2.6440001 -0.55000001 56
3.4549999 -2.105 -0.76599997 20
4.059 -2.425 -0.72899997 18
4.8369999 -2.845 -0.68000001 33
3.8699999 -2.345 -0.773 22
4.0939999 -2.4400001 -0.65399998 42
4.5100002 -2.6470001 -0.54100001 57
3.4330001 -2.118 -0.75999999 17
4.0019999 -2.4219999 -0.71700001 18
4.7849998 -2.8510001 -0.67000002 42
3.8740001 -2.3770001 -0.773 23
4.0339999 -2.434 -0.64300001 35
4.5050001 -2.677 -0.537 75
3.438 -2.1470001 -0.75999999 16
3.947 -2.418 -0.70599997 18
4.3530002 -2.625 -0.60699999 19
3.8759999 -2.408 -0.77100003 27
3.993 -2.4400001 -0.634 35
4.5219998 -2.721 -0.53600001 59
3.4349999 -2.1719999 -0.75800002 16
3.891 -2.4119999 -0.69300002 20
4.5 -2.747 -0.62400001 54
3.832 -2.4089999 -0.76099998 24
3.95 -2.4419999 -0.625 28
4.2589998 -2.5940001 -0.50199997 37
3.434 -2.197 -0.75599998 18
3.8469999 -2.414 -0.68300003 21
4.2119999 -2.602 -0.58200002 39
3.7969999 -2.4159999 -0.75199997 24
3.9200001 -2.4530001 -0.61799997 30
4.4250002 -2.7260001 -0.51899999 32
3.4349999 -2.224 -0.755 18
3.803 -2.414 -0.67299998 21
4.0799999 -2.55 -0.56 35
3.7449999 -2.4100001 -0.73900002 17
3.904 -2.471 -0.61199999 33
3.9630001 -2.471 -0.461 29
3.4389999 -2.2520001 -0.75400001 20
3.757 -2.4130001 -0.66299999 25
3.934 -2.487 -0.537 33
3.7030001 -2.411 -0.72799999 23
3.8640001 -2.474 -0.60299999 32
4.2010002 -2.6489999 -0.486 33
3.447 -2.283 -0.75300002 22
3.7219999 -2.4170001 -0.65399998 29
3.8139999 -2.438 -0.51800001 34
3.6659999 -2.4130001 -0.71899998 19
3.8010001 -2.461 -0.58999997 43
4.3740001 -2.789 -0.50199997 54
3.447 -2.3080001 -0.75099999 22
3.674 -2.4130001 -0.64300001 32
3.911 -2.5280001 -0.528 25
3.619 -2.408 -0.70700002 20
3.8699999 -2.533 -0.59799999 36
4.3390002 -2.7969999 -0.49399999 58
3.4489999 -2.3340001 -0.74900001 23
3.6259999 -2.4070001 -0.63099998 30
3.5780001 -2.4059999 -0.69599998 17
3.8840001 -2.5699999 -0.597 26
4.2839999 -2.7920001 -0.48300001 46
3.4530001 -2.362 -0.74699998 27
3.5910001 -2.4089999 -0.62199998 29
4.3189998 -2.852 -0.57499999 23
3.539 -2.405 -0.685 17
3.858 -2.579 -0.58899999 35
4.2709999 -2.813 -0.477 45
3.4349999 -2.3740001 -0.74000001 21
3.5550001 -2.4100001 -0.61199999 30
4.506 -3.007 -0.59500003 14
3.4979999 -2.402 -0.67400002 16
3.777 -2.5510001 -0.57300001 34
4.414 -2.937 -0.48899999 26
3.4300001 -2.3940001 -0.736 25
3.526 -2.414 -0.60399997 29
4.092 -2.7590001 -0.53600001 14
3.4649999 -2.4030001 -0.66399997 16
3.904 -2.6630001 -0.588 28
4.1539998 -2.7920001 -0.45500001 35
3.3929999 -2.392 -0.72500002 19
3.4909999 -2.4130001 -0.59399998 25
4.0970001 -2.789 -0.53200001 21
3.425 -2.3989999 -0.653 20
3.8640001 -2.6619999 -0.57800001 26
4.2480001 -2.8840001 -0.46000001 31
3.362 -2.3929999 -0.71499997 19
3.4790001 -2.428 -0.588 21
4.3429999 -2.9849999 -0.55900002 23
3.4030001 -2.4059999 -0.64499998 25
3.934 -2.7360001 -0.583 30
4.02 -2.7550001 -0.43099999 42
3.3280001 -2.3900001 -0.704 19
3.5079999 -2.4719999 -0.58899999 19
4.382 -3.04 -0.55800003 39
3.3740001 -2.4070001 -0.63599998 25
3.9070001 -2.743 -0.57499999 33
3.9330001 -2.721 -0.41600001 30
3.3 -2.392 -0.69400001 18
3.576 -2.543 -0.59600002 26
3.628 -2.54 -0.458 18
3.3440001 -2.408 -0.62599999 28
3.8759999 -2.7449999 -0.565 22
3.6029999 -2.5150001 -0.37599999 43
3.263 -2.3859999 -0.68199998 17
3.6240001 -2.5999999 -0.59899998 38
3.7720001 -2.665 -0.47099999 25
3.3050001 -2.4000001 -0.61400002 28
3.7290001 -2.665 -0.53899997 32
3.5969999 -2.5339999 -0.37099999 37
3.2390001 -2.388 -0.67299998 16
3.5929999 -2.599 -0.58999997 30
3.947 -2.813 -0.48699999 40
3.2809999 -2.402 -0.60500002 29
3.675 -2.648 -0.52600002 33
3.4849999 -2.4760001 -0.354 29
3.21 -2.3859999 -0.66299999 15
3.562 -2.599 -0.579 28
3.928 -2.8239999 -0.479 39
3.2539999 -2.402 -0.59600002 30
3.5769999 -2.599 -0.50700003 26
3.4389999 -2.464 -0.34400001 34
3.1900001 -2.3900001 -0.65399998 15
3.526 -2.5929999 -0.56800002 35
3.6110001 -2.6170001 -0.435 35
3.23 -2.4030001 -0.58700001 30
3.4400001 -2.52 -0.48199999 35
3.493 -2.523 -0.34400001 28
3.1619999 -2.3870001 -0.64399999 15
3.467 -2.5699999 -0.55400002 40
3.734 -2.727 -0.44400001 28
3.2119999 -2.408 -0.57800001 28
3.4200001 -2.5250001 -0.47400001 33
3.474 -2.529 -0.336 33
3.1400001 -2.388 -0.634 15
3.5450001 -2.6470001 -0.56 27
3.612 -2.658 -0.42300001 38
3.2049999 -2.4200001 -0.57200003 23
3.405 -2.5320001 -0.46599999 36
3.4289999 -2.516 -0.32600001 35
3.1129999 -2.3840001 -0.62300003 18
3.5150001 -2.6429999 -0.55000001 33
3.4230001 -2.5380001 -0.39500001 30
3.214 -2.444 -0.56800002 17
3.5020001 -2.6229999 -0.47299999 35
3.437 -2.54 -0.32100001 38
3.0869999 -2.3800001 -0.61299998 23
3.556 -2.6930001 -0.55000001 27
3.4189999 -2.553 -0.389 31
3.362 -2.573 -0.58899999 19
3.4159999 -2.576 -0.456 26
3.4260001 -2.55 -0.31400001 35
3.0739999 -2.3859999 -0.60500002 24
3.4920001 -2.6619999 -0.53399998 38
3.4000001 -2.5569999 -0.38100001 27
3.7869999 -2.918 -0.65700001 28
3.3180001 -2.5190001 -0.43700001 35
3.45 -2.585 -0.31 30
3.053 -2.3840001 -0.59500003 30
3.447 -2.6440001 -0.52100003 34
3.4449999 -2.6070001 -0.37900001 29
3.5350001 -2.7409999 -0.60600001 33
3.2690001 -2.497 -0.42399999 33
3.352 -2.5280001 -0.29499999 35
3.05 -2.395 -0.58899999 29
3.49 -2.694 -0.52100003 31
3.29 -2.5050001 -0.35600001 35
4.053 -3.1600001 -0.68699998 43
3.237 -2.4879999 -0.414 29
3.3510001 -2.543 -0.28799999 35
3.0220001 -2.3859999 -0.57800001 25
3.4719999 -2.6949999 -0.51099998 35
3.2950001 -2.5239999 -0.34999999 33
3.7 -2.901 -0.62 30
3.2019999 -2.4749999 -0.403 38
3.325 -2.5380001 -0.27900001 38
3.027 -2.4030001 -0.57300001 25
3.598 -2.8080001 -0.52200001 27
3.3380001 -2.5710001 -0.347 40
3.6470001 -2.8740001 -0.60399997 31
3.24 -2.517 -0.40099999 33
3.276 -2.5150001 -0.26800001 37
3.0109999 -2.402 -0.56400001 23
3.191 -2.503 -0.45699999 35
3.3599999 -2.602 -0.34299999 29
3.454 -2.7349999 -0.565 34
3.2060001 -2.5039999 -0.38999999 39
3.2780001 -2.53 -0.26100001 41
3.029 -2.427 -0.56 18
3.174 -2.5020001 -0.44800001 38
3.4890001 -2.7160001 -0.34900001 35
3.4489999 -2.744 -0.55699998 31
3.2379999 -2.5409999 -0.38699999 33
3.263 -2.5309999 -0.25299999 47
3.1289999 -2.517 -0.57200003 20
3.1659999 -2.506 -0.44 38
3.224 -2.5209999 -0.315 31
3.402 -2.717 -0.54100001 32
3.243 -2.5569999 -0.38100001 33
3.2490001 -2.5320001 -0.245 41
3.2679999 -2.6400001 -0.58999997 29
3.1559999 -2.5090001 -0.43200001 40
3.161 -2.4820001 -0.30199999 32
3.4619999 -2.776 -0.54299998 27
3.227 -2.5539999 -0.37200001 36
3.2579999 -2.55 -0.23800001 33
3.313 -2.6849999 -0.58999997 31
3.174 -2.533 -0.42699999 34
3.1659999 -2.497 -0.296 33
3.4579999 -2.7820001 -0.53500003 34
3.1900001 -2.5350001 -0.36000001 37
3.2650001 -2.566 -0.23199999 35
3.3199999 -2.7 -0.58399999 35
3.1919999 -2.5550001 -0.42199999 39
3.25 -2.573 -0.296 32
3.6919999 -2.9809999 -0.56199998 27
3.2119999 -2.5610001 -0.35499999 36
3.2509999 -2.5650001 -0.223 35
3.277 -2.6719999 -0.56900001 31
3.1789999 -2.553 -0.41299999 45
3.2820001 -2.6070001 -0.29100001 34
3.8659999 -3.1289999 -0.579 27
3.2409999 -2.592 -0.35100001 33
3.2650001 -2.585 -0.21600001 35
3.2360001 -2.645 -0.55299997 34
3.1730001 -2.556 -0.40400001 40
3.358 -2.6760001 -0.28999999 33
4.105 -3.332 -0.60600001 25
3.1949999 -2.562 -0.338 33
3.2980001 -2.6199999 -0.211 28
3.23 -2.6459999 -0.54400003 39
3.161 -2.553 -0.39500001 33
3.375 -2.697 -0.28299999 33
3.503 -2.849 -0.50800002 21
3.1229999 -2.5109999 -0.32300001 29
3.2750001 -2.608 -0.20200001 29
3.2320001 -2.652 -0.537 32
3.132 -2.5339999 -0.384 32
3.3429999 -2.678 -0.27200001 32
3.168 -2.5810001 -0.45100001 26
3.1110001 -2.507 -0.31400001 29
3.198 -2.5539999 -0.189 28
3.237 -2.6600001 -0.52899998 32
3.0910001 -2.506 -0.37099999 35
3.326 -2.6700001 -0.26300001 28
3.108 -2.536 -0.435 29
3.151 -2.5439999 -0.31 31
3.152 -2.5220001 -0.178 27
3.22 -2.6500001 -0.51800001 32
3.0769999 -2.4979999 -0.361 41
3.2839999 -2.641 -0.25099999 31
3.1140001 -2.5439999 -0.428 28
3.187 -2.576 -0.30599999 34
3.128 -2.507 -0.169 25
3.223 -2.654 -0.50999999 31
3.089 -2.51 -0.35499999 36
3.2520001 -2.619 -0.241 31
3.1170001 -2.549 -0.41999999 28
3.211 -2.598 -0.30000001 33
3.0209999 -2.425 -0.156 24
3.115 -2.533 -0.34999999 29
3.2349999 -2.608 -0.23199999 32
3.1029999 -2.5380001 -0.41 28
3.224 -2.6110001 -0.29300001 32
3.0350001 -2.4389999 -0.149 21
4.3260002 -3.5639999 -0.662 25
3.1470001 -2.5599999 -0.345 25
3.25 -2.622 -0.22400001 31
3.0829999 -2.5220001 -0.40000001 32
3.2460001 -2.6300001 -0.287 28
3.1489999 -2.5320001 -0.147 21
3.164 -2.605 -0.47600001 5
3.1210001 -2.539 -0.33500001 28
3.223 -2.6010001 -0.214 25
3.075 -2.5150001 -0.38999999 33
3.2490001 -2.6329999 -0.278 27
3.1300001 -2.5190001 -0.138 21
3.1949999 -2.6289999 -0.472 21
3.1110001 -2.5309999 -0.32499999 31
3.198 -2.5810001 -0.204 24
3.063 -2.503 -0.38100001 32
3.2720001 -2.651 -0.27200001 26
3.0899999 -2.487 -0.12800001 20
3.1329999 -2.576 -0.454 28
3.1129999 -2.5309999 -0.317 31
3.175 -2.562 -0.19400001 27
3.069 -2.506 -0.373 36
3.286 -2.661 -0.26499999 25
3.0899999 -2.4860001 -0.12 20
3.1289999 -2.569 -0.44499999 29
3.1110001 -2.526 -0.30899999 34
3.2019999 -2.582 -0.18799999 27
3.076 -2.5090001 -0.366 42
3.2720001 -2.6470001 -0.255 26
3.1359999 -2.5220001 -0.114 21
3.118 -2.556 -0.435 32
3.1329999 -2.5409999 -0.303 33
3.1110001 -2.506 -0.175 24
3.0869999 -2.5139999 -0.359 41
3.2509999 -2.6270001 -0.245 30
3.24 -2.6029999 -0.109 21
3.098 -2.5339999 -0.42300001 29
3.1930001 -2.586 -0.30000001 33
3.043 -2.4489999 -0.163 24
3.112 -2.529 -0.35299999 34
3.2320001 -2.6070001 -0.235 34
3.3069999 -2.654 -0.103 20
3.102 -2.5309999 -0.41499999 35
3.2219999 -2.6040001 -0.294 34
3.016 -2.4230001 -0.154 28
3.174 -2.573 -0.352 28
3.247 -2.615 -0.227 33
3.2809999 -2.6289999 -0.093999997 25
3.1170001 -2.5369999 -0.40900001 34
3.2449999 -2.6170001 -0.28799999 34
3.01 -2.4130001 -0.146 28
3.2030001 -2.5899999 -0.347 33
3.2449999 -2.6070001 -0.219 27
3.3959999 -2.7160001 -0.089000002 24
3.1170001 -2.529 -0.40000001 34
3.3080001 -2.6600001 -0.285 31
3.1389999 -2.5109999 -0.14399999 26
3.184 -2.5669999 -0.336 29
3.309 -2.651 -0.215 29
3.312 -2.642 -0.078000002 24
3.171 -2.5639999 -0.39899999 32
3.368 -2.701 -0.28099999 31
3.1760001 -2.5339999 -0.138 29
3.131 -2.516 -0.322 33
3.296 -2.6329999 -0.205 34
3.3280001 -2.6489999 -0.07 22
3.122 -2.5150001 -0.384 40
3.3399999 -2.6700001 -0.27000001 38
3.155 -2.51 -0.12899999 30
3.142 -2.516 -0.315 38
3.188 -2.539 -0.191 33
3.5039999 -2.78 -0.064999998 25
3.217 -2.582 -0.38699999 26
3.319 -2.6429999 -0.25999999 39
3.1140001 -2.4690001 -0.119 31
3.1689999 -2.5280001 -0.31 36
3.1619999 -2.51 -0.18099999 32
3.4920001 -2.763 -0.057 25
3.168 -2.5309999 -0.373 26
3.2839999 -2.605 -0.249 36
3.1849999 -2.517 -0.114 30
3.1800001 -2.526 -0.30199999 36
3.158 -2.4960001 -0.17299999 31
3.388 -2.671 -0.046 24
3.155 -2.5090001 -0.36300001 36
3.2420001 -2.5610001 -0.23800001 39
3.135 -2.4679999 -0.105 34
3.1860001 -2.5190001 -0.29499999 35
3.2290001 -2.5420001 -0.169 31
3.5039999 -2.7509999 -0.039999999 23
3.234 -2.5599999 -0.36399999 40
3.263 -2.566 -0.23100001 37
3.109 -2.437 -0.096000001 31
3.223 -2.536 -0.28999999 35
3.22 -2.5239999 -0.161 31
3.385 -2.6470001 -0.030999999 20
3.2880001 -2.5899999 -0.361 32
3.2820001 -2.569 -0.22400001 29
3.2320001 -2.5220001 -0.092 31
3.2839999 -2.5710001 -0.287 31
3.0699999 -2.395 -0.146 29
3.5190001 -2.7390001 -0.023 22
3.4530001 -2.7049999 -0.37099999 27
3.3199999 -2.585 -0.219 28
3.2950001 -2.559 -0.086999997 32
3.2509999 -2.5309999 -0.27599999 34
3.2060001 -2.4879999 -0.145 23
3.4289999 -2.6570001 -0.015 19
3.296 -2.566 -0.345 35
3.2709999 -2.533 -0.207 30
3.3199999 -2.5650001 -0.079999998 24
3.277 -2.5369999 -0.271 41
3.325 -2.5669999 -0.142 21
3.3970001 -2.619 -0.0070000002 20
3.381 -2.6170001 -0.34599999 25
3.306 -2.546 -0.20200001 29
3.2620001 -2.507 -0.07 29
3.273 -2.5190001 -0.26199999 36
3.355 -2.575 -0.13500001 25
3.6930001 -2.832 0 19
3.3329999 -2.5639999 -0.333 35
3.2969999 -2.5239999 -0.19400001 30
3.2639999 -2.494 -0.063000001 28
3.279 -2.5079999 -0.255 35
3.4100001 -2.602 -0.13 24
3.645 -2.78 0.0080000004 20
3.3440001 -2.5550001 -0.32600001 29
3.27 -2.487 -0.185 23
3.418 -2.596 -0.059 21
3.3039999 -2.5109999 -0.249 29
3.408 -2.585 -0.123 28
3.7179999 -2.8180001 0.016000001 21
3.385 -2.569 -0.322 29
3.362 -2.5409999 -0.182 20
3.4330001 -2.592 -0.052000001 22
3.3429999 -2.523 -0.245 31
3.401 -2.563 -0.115 23
3.658 -2.756 0.023 20
3.4300001 -2.585 -0.31900001 29
3.398 -2.5510001 -0.177 22
3.74 -2.8050001 -0.048 25
3.3440001 -2.507 -0.237 29
3.415 -2.5550001 -0.108 23
3.819 -2.859 0.032000002 20
3.4649999 -2.592 -0.31400001 27
3.349 -2.4960001 -0.167 29
3.431 -2.5569999 -0.037 28
3.362 -2.5020001 -0.23100001 27
3.4890001 -2.5929999 -0.103 23
3.826 -2.845 0.039999999 23
3.4230001 -2.5420001 -0.30199999 26
3.3199999 -2.457 -0.15899999 25
3.592 -2.6570001 -0.032000002 33
3.358 -2.48 -0.22400001 25
3.6040001 -2.6589999 -0.098999999 20
4.052 -2.9920001 0.050000001 22
3.4130001 -2.5139999 -0.294 22
3.4189999 -2.5109999 -0.156 22
3.6659999 -2.6919999 -0.025 22
3.3900001 -2.484 -0.219 19
3.648 -2.671 -0.093000002 19
3.4760001 -2.5480001 0.050000001 21
3.4170001 -2.497 -0.287 28
3.454 -2.5179999 -0.15099999 24
3.734 -2.7219999 -0.018999999 30
3.4460001 -2.5050001 -0.215 19
3.717 -2.701 -0.088 21
3.846 -2.7980001 0.061999999 28
3.4519999 -2.5020001 -0.28299999 24
3.6210001 -2.618 -0.15099999 23
3.813 -2.7579999 -0.012 31
3.4660001 -2.4990001 -0.20900001 21
3.6989999 -2.6659999 -0.079999998 26
3.96 -2.859 0.071000002 48
3.5 -2.5150001 -0.28 19
3.631 -2.6040001 -0.145 25
3.8540001 -2.7650001 -0.0049999999 47
3.4790001 -2.487 -0.204 22
3.8050001 -2.72 -0.075000003 32
3.984 -2.8529999 0.079000004 68
3.612 -2.573 -0.28099999 27
3.7130001 -2.6400001 -0.141 24
3.701 -2.6340001 0.001 32
3.579 -2.536 -0.20299999 20
3.983 -2.823 -0.071999997 37
4 -2.8410001 0.086000003 47
3.5940001 -2.5369999 -0.273 31
3.964 -2.7939999 -0.14300001 24
3.8469999 -2.714 0.0080000004 36
3.529 -2.4790001 -0.193 21
3.924 -2.757 -0.063000001 25
4.0250001 -2.8340001 0.093000002 35
3.6329999 -2.5420001 -0.26899999 30
4.02 -2.8080001 -0.138 25
3.9749999 -2.78 0.015 15
3.661 -2.5480001 -0.19400001 24
4.0999999 -2.855 -0.059999999 23
4.1199999 -2.8759999 0.102 12
3.786 -2.6240001 -0.273 18
3.9089999 -2.7060001 -0.127 24
4.1960001 -2.9089999 0.022 20
4.0359998 -2.783 -0.207 24
4.2579999 -2.9389999 -0.055 26
4.7839999 -3.3099999 0.126 19
3.7869999 -2.599 -0.26699999 20
4.2319999 -2.902 -0.131 21
4.1090002 -2.822 0.028000001 24
4.1630001 -2.8429999 -0.206 20
4.2729998 -2.921 -0.048 25
4.7649999 -3.266 0.132 18
3.7969999 -2.5810001 -0.26100001 20
4.277 -2.905 -0.125 25
4.3189998 -2.9389999 0.035999998 26
4.0710001 -2.753 -0.19499999 20
4.395 -2.9760001 -0.043000001 21
5.6069999 -3.8069999 0.164 27
3.8169999 -2.5680001 -0.25600001 24
3.8269999 -2.5739999 -0.106 23
4.4200001 -2.9790001 0.044 19
3.848 -2.576 -0.178 24
4.493 -3.0120001 -0.037 23
5.7270002 -3.852 0.176 29
3.819 -2.5439999 -0.25 22
4.0380001 -2.6889999 -0.106 23
5.665 -3.78 0.064000003 29
3.9790001 -2.6370001 -0.178 21
4.3940001 -2.9170001 -0.029999999 22
5.7270002 -3.8139999 0.183 35
3.9100001 -2.5769999 -0.25 27
4.3540001 -2.869 -0.108 23
4.789 -3.164 0.061000001 22
4.052 -2.658 -0.175 25
4.2740002 -2.8080001 -0.023 25
5.7969999 -3.822 0.193 26
3.984 -2.598 -0.248 21
4.3870001 -2.862 -0.102 25
4.3080001 -2.8169999 0.059999999 26
4.0840001 -2.651 -0.17 23
4.3569999 -2.8329999 -0.017000001 22
5.9130001 -3.859 0.205 29
4.382 -2.8269999 -0.266 23
4.4229999 -2.8540001 -0.097000003 22
4.8109999 -3.1129999 0.074000001 22
4.0830002 -2.6210001 -0.164 25
4.5409999 -2.9219999 -0.012 28
5.8959999 -3.8080001 0.211 30
4.0120001 -2.5599999 -0.23800001 24
4.4819999 -2.8610001 -0.092 24
4.6820002 -2.9979999 0.078000002 29
4.4000001 -2.7939999 -0.171 30
4.9460001 -3.148 -0.0070000002 24
4.4959998 -2.8369999 -0.25999999 22
4.421 -2.7920001 -0.086000003 34
5.3499999 -3.388 0.094999999 35
4.4499998 -2.7950001 -0.167 25
6.0489998 -3.823 0.23 27
4.539 -2.832 -0.257 26
4.427 -2.7639999 -0.079999998 28
4.4590001 -2.7690001 -0.162 35
4.3039999 -2.6789999 0.003 29
6.112 -3.8199999 0.23899999 39
4.54 -2.8 -0.25099999 30
4.7280002 -2.9189999 -0.079999998 26
4.6939998 -2.9070001 0.093999997 7
4.5300002 -2.78 -0.15899999 27
4.4299998 -2.7260001 0.0080000004 24
6.1939998 -3.8269999 0.249 34
4.6160002 -2.8139999 -0.249 21
4.4320002 -2.7049999 -0.07 32
4.5500002 -2.786 0.096000001 22
4.5599999 -2.767 -0.155 26
5.4499998 -3.3150001 0.016000001 26
6.2709999 -3.8310001 0.25799999 34
4.5190001 -2.7219999 -0.23899999 22
4.6220002 -2.7869999 -0.068000004 31
4.6789999 -2.8310001 0.103 5
4.3080001 -2.582 -0.141 27
5.737 -3.4489999 0.023 24
6.3959999 -3.862 0.26899999 34
4.5310001 -2.697 -0.234 24
4.5110002 -2.688 -0.061000001 30
4.717 -2.8210001 0.108 5
4.8800001 -2.8900001 -0.155 27
4.9419999 -2.9360001 0.024 24
6.4640002 -3.8570001 0.278 25
4.6149998 -2.7130001 -0.233 25
4.7340002 -2.7869999 -0.059999999 23
6.4840002 -3.8310001 0.155 37
4.9050002 -2.8699999 -0.15099999 24
4.4190001 -2.5929999 0.026000001 35
6.4359999 -3.7939999 0.28200001 35
4.5840001 -2.661 -0.227 28
5.204 -3.026 -0.061000001 27
6.4809999 -3.7820001 0.161 38
4.4850001 -2.5910001 -0.133 33
4.4180002 -2.5610001 0.029999999 38
6.6939998 -3.898 0.29899999 18
4.6929998 -2.691 -0.228 31
5.4089999 -3.1059999 -0.057999998 26
6.5830002 -3.7950001 0.168 44
4.868 -2.777 -0.14 24
4.4460001 -2.5450001 0.034000002 35
11.972 -6.8850002 0.54400003 28
4.7719998 -2.701 -0.226 29
5.5029998 -3.1210001 -0.054000001 25
6.6690001 -3.796 0.176 57
5.1350002 -2.892 -0.14300001 30
4.4380002 -2.5079999 0.037 0
6.7779999 -3.849 0.31200001 0
4.8610001 -2.7160001 -0.226 33
5.1690001 -2.8929999 -0.046999998 23
6.7249999 -3.779 0.182 41
5.1820002 -2.881 -0.139 27
6.6220002 -3.6949999 0.061000001 47
6.7579999 -3.789 0.31600001 17
4.8000002 -2.6470001 -0.219 21
5.3860002 -2.9760001 -0.044 25
6.7449999 -3.7409999 0.18799999 38
5.0599999 -2.776 -0.132 27
6.4239998 -3.5369999 0.064000003 36
6.7979999 -3.7609999 0.322 0
4.8909998 -2.661 -0.219 27
5.7930002 -3.1589999 -0.043000001 26
6.8010001 -3.723 0.19400001 43
5.3080001 -2.8740001 -0.134 24
6.902 -3.75 0.074000001 38
12.727 -6.9489999 0.611 36
4.9640002 -2.665 -0.21799999 24
5.4380002 -2.925 -0.037 27
7.0300002 -3.7969999 0.205 38
5.3940001 -2.881 -0.133 29
7.1339998 -3.825 0.081 53
12.897 -6.9489999 0.62699997 29
5.119 -2.71 -0.221 26
5.5170002 -2.928 -0.033 31
7.0799999 -3.773 0.20999999 41
5.053 -2.6619999 -0.12 26
7.0910001 -3.7490001 0.085000001 40
12.125 -6.4429998 0.59600002 36
5.2290001 -2.7309999 -0.222 34
6.329 -3.313 -0.034000002 26
7.1900001 -3.779 0.21799999 26
5.098 -2.6489999 -0.118 31
7.3150001 -3.8150001 0.092 35
12.109 -6.3470001 0.60100001 36
5.3410001 -2.75 -0.223 26
5.3850002 -2.779 -0.026000001 19
7.5219998 -3.898 0.23199999 41
5.3210001 -2.7260001 -0.12 25
7.3670001 -3.7880001 0.097000003 51
12.154 -6.2820001 0.60900003 38
5.303 -2.6919999 -0.21699999 30
5.6240001 -2.862 -0.023 2
7.4390001 -3.8010001 0.233 21
5.7090001 -2.882 -0.125 29
7.4299998 -3.766 0.102 40
12.239 -6.2360001 0.61799997 39
5.4400001 -2.7219999 -0.22 31
7.9970002 -4.0110002 -0.028999999 35
7.7259998 -3.892 0.245 11
6.5650001 -3.267 -0.14 25
7.5560002 -3.7750001 0.107 40
15.828 -7.9489999 0.80599999 19
5.4829998 -2.7030001 -0.21799999 36
5.5019999 -2.7190001 -0.017000001 10
7.4720001 -3.7090001 0.241 15
5.6999998 -2.7950001 -0.118 31
7.645 -3.7639999 0.112 49
16.264 -8.0500002 0.83399999 10
5.7189999 -2.7780001 -0.22400001 34
7.7680001 -3.783 -0.02 38
7.4320002 -3.635 0.242 0
6.0029998 -2.9000001 -0.121 30
7.8260002 -3.796 0.118 38
15.671 -7.6409998 0.80900002 32
5.7270002 -2.7409999 -0.221 31
5.7810001 -2.7739999 -0.012 13
14.283 -6.882 0.47099999 19
6.7199998 -3.198 -0.132 22
8.0469999 -3.845 0.125 49
15.797 -7.5879998 0.81999999 39
5.6529999 -2.664 -0.215 23
8.0939999 -3.8239999 -0.014 33
14.327 -6.7979999 0.47799999 6
5.8010001 -2.7190001 -0.112 25
8.1160002 -3.819 0.12899999 54
15.919 -7.5300002 0.83099997 50
6.112 -2.836 -0.229 23
8.2629995 -3.8440001 -0.011 26
14.077 -6.5780001 0.47400001 27
6.948 -3.2060001 -0.131 26
8.1599998 -3.78 0.132 42
15.976 -7.4400001 0.838 37
6.197 -2.8310001 -0.23 23
5.823 -2.6670001 -0.0049999999 0
14.058 -6.467 0.477 11
6.8299999 -3.102 -0.126 29
8.3590002 -3.812 0.138 18
14.533 -6.6630001 0.76599997 28
6.375 -2.8659999 -0.234 24
8.3950005 -3.7839999 -0.0049999999 24
8.6070004 -3.848 -0.155 24
8.4110003 -3.7750001 0.142 46
15.181 -6.8499999 0.80299997 35
6.776 -2.9979999 -0.245 26
8.467 -3.756 -0.0020000001 39
14.37 -6.4029999 0.495 11
8.3870001 -3.704 0.14300001 0
16.184999 -7.184 0.85900003 23
6.8270001 -2.971 -0.245 22
8.7250004 -3.8080001 0 30
16.358 -7.171 0.56699997 19
8.6560001 -3.7609999 0.15000001 0
16.313999 -7.1240001 0.86799997 25
7.0289998 -3.0090001 -0.249 22
8.8710003 -3.8069999 0.0020000001 26
7.8150001 -3.326 -0.133 26
13.42 -5.7350001 0.236 34
16.152 -6.9380002 0.86199999 31
6.848 -2.8829999 -0.23999999 23
7.0570002 -2.9790001 0.003 0
14.529 -6.1599998 0.509 1
7.7919998 -3.26 -0.13 19
13.456 -5.6529999 0.23999999 25
16.194 -6.8379998 0.866 38
6.9990001 -2.8959999 -0.243 29
7.7789998 -3.2279999 0.0049999999 73
7.816 -3.2579999 0.27500001 46
7.4619999 -3.069 -0.123 55
7.7930002 -3.2179999 0.14 94
7.8150001 -3.244 0.41800001 65
7.7160001 -3.138 -0.266 54
7.7880001 -3.1760001 0.0070000002 99
7.7909999 -3.191 0.27500001 104
7.7989998 -3.1530001 -0.126 85
7.809 -3.1689999 0.142 103
7.8130002 -3.187 0.419 95
7.6820002 -3.0699999 -0.26300001 18
7.8260002 -3.1359999 0.0089999996 64
7.8270001 -3.1500001 0.27700001 90
7.948 -3.1559999 -0.127 1
7.881 -3.142 0.14399999 17
7.8600001 -3.1500001 0.42199999 71
7.8969998 -3.0999999 -0.26800001 19
9.8190002 -3.865 0.013 26
10.13 -3.951 -0.16 26
13.688 -5.3600001 0.252 7
16.201 -6.3769999 0.87099999 37
8.6540003 -3.336 -0.292 20
9.8479996 -3.8069999 0.014 6
15.164 -5.8870001 0.53899997 27
8.7930002 -3.3670001 -0.13699999 2
13.866 -5.3319998 0.257 24
16.218 -6.2680001 0.87199998 48
8.0559998 -3.049 -0.27000001 19
14.937 -5.6690001 0.024 11
15.16 -5.7779999 0.54000002 16
10.872 -4.0869999 -0.167 23
15.755 -5.9460001 0.294 38
15.904 -6.033 0.85500002 33
9.0080004 -3.346 -0.30000001 19
15.232 -5.6739998 0.027000001 20
14.894 -5.572 0.53200001 18
7.9689999 -2.9400001 -0.121 0
15.874 -5.8800001 0.29699999 40
15.491 -5.7659998 0.833 29
9.1029997 -3.3169999 -0.301 15
14.239 -5.204 0.027000001 28
15.219 -5.586 0.54299998 24
10.995 -3.98 -0.16599999 26
14.708 -5.3449998 0.27599999 30
14.753 -5.388 0.79299998 33
9.0369997 -3.2309999 -0.29699999 13
14.752 -5.2880001 0.028999999 29
14.325 -5.1560001 0.51200002 22
11.443 -4.0650001 -0.171 26
14.755 -5.2659998 0.278 28
14.197 -5.092 0.76200002 21
9.5319996 -3.349 -0.31200001 18
14.733 -5.1950002 0.029999999 27
15.198 -5.3839998 0.54299998 47
11.513 -4.0250001 -0.171 28
14.61 -5.132 0.27500001 29
15.063 -5.3210001 0.80900002 41
9.809 -3.3940001 -0.31999999 9
15.42 -5.3530002 0.032000002 13
14.533 -5.0710001 0.51999998 27
11.642 -4.0079999 -0.17200001 19
14.665 -5.072 0.27700001 9
14.611 -5.0819998 0.78399998 27
9.7749996 -3.3299999 -0.31900001 15
16.659 -5.6950002 0.035999998 20
15.998 -5.4959998 0.57200003 31
11.862 -4.02 -0.175 21
16.782 -5.7150002 0.317 26
14.518 -4.9710002 0.778 31
9.8439999 -3.3010001 -0.31999999 3
16.398001 -5.5180001 0.035999998 34
15.049 -5.0879998 0.53799999 22
12.226 -4.0780001 -0.17900001 4
16.68 -5.592 0.31600001 19
14.64 -4.9330001 0.78399998 27
12.48 -4.119 -0.40400001 32
16.513 -5.4689999 0.035999998 32
15.107 -5.027 0.53899997 14
12.485 -4.099 -0.182 4
16.759001 -5.527 0.317 26
15.31 -5.0770001 0.81900001 38
10.251 -3.329 -0.331 9
16.646999 -5.4239998 0.037 22
15.184 -4.9720001 0.542 20
12.469 -4.027 -0.18099999 1
16.771999 -5.4429998 0.317 13
14.893 -4.8590002 0.796 11
13.042 -4.1659999 -0.41999999 28
16.101999 -5.1620002 0.035999998 3
15.242 -4.9099998 0.54299998 20
16.030001 -5.092 -0.233 33
16.013 -5.1110001 0.303 2
15.244 -4.8909998 0.81400001 3
9.5050001 -2.9860001 -0.30599999 6
16.124001 -5.0830002 0.035999998 6
15.622 -4.948 0.55599999 36
16.120001 -5.0359998 -0.234 29
36.759998 -11.537 0.69499999 3
15.394 -4.8579998 0.82099998 24
13.184 -4.073 -0.42399999 26
16.267 -5.0419998 0.037 20
15.289 -4.7620001 0.54299998 39
16.135 -4.9549999 -0.233 32
36.679001 -11.318 0.69300002 6
15.363 -4.7659998 0.81800002 27
13.602 -4.1300001 -0.43599999 26
16.299999 -4.967 0.037 30
15.329 -4.6929998 0.54400003 38
16.097 -4.8590002 -0.23199999 21
36.958 -11.21 0.69700003 40
14.478 -4.4130001 0.76999998 10
10.412 -3.1070001 -0.333 4
16.129999 -4.8299999 0.035999998 22
15.423 -4.6389999 0.54699999 38
16.193001 -4.8039999 -0.233 29
36.966999 -11.015 0.69599998 42
15.181 -4.5479999 0.80599999 20
13.901 -4.0749998 -0.44499999 28
16.231001 -4.7740002 0.037 24
15.922 -4.7059999 0.56300002 26
16.297001 -4.7490001 -0.235 34
36.967999 -10.822 0.69400001 43
15.356 -4.5190001 0.81400001 19
11.267 -3.244 -0.36000001 1
16.1 -4.652 0.035999998 9
16.112 -4.677 0.56800002 27
16.25 -4.6500001 -0.234 32
39.591999 -11.383 0.74199998 3
14.023 -4.0510001 0.74199998 21
14.222 -4.0209999 -0.454 30
16.066999 -4.5580001 0.035 0
15.793 -4.5 0.55699998 11
16.290001 -4.5770001 -0.235 28
40.578999 -11.454 0.75800002 6
15.116 -4.2880001 0.79799998 37
12.65 -3.5109999 -0.403 1
16.563999 -4.612 0.035999998 1
15.381 -4.302 0.54100001 31
16.356001 -4.5100002 -0.236 36
41.102001 -11.385 0.76700002 44
14.711 -4.0960002 0.77499998 32
14.955 -4.073 -0.477 29
42.150002 -11.518 0.092 58
15.099 -4.1440001 0.52999997 36
16.292999 -4.408 -0.235 1
42.221001 -11.476 0.78500003 36
13.786 -3.7650001 0.72500002 23
