# .PCD v0.7 - Point Cloud Data file format
VERSION 0.7
FIELDS x y z intensity
SIZE 4 4 4 4
TYPE F F F F
COUNT 1 1 1 1
WIDTH 1669
HEIGHT 1
VIEWPOINT 0 0 0 1 0 0 0
POINTS 1669
DATA ascii
3.6300001 -2.1010001 -0.182 1
21.046 -12.198 -0.25999999 82
38.548 -22.422001 0.93199998 28
8.0030003 -4.6079998 -0.243 18
38.419998 -22.191999 0.23999999 65
38.508999 -22.349001 1.692 35
7.8530002 -4.4879999 -0.38600001 23
38.487999 -22.028999 -0.44 58
38.527 -22.132999 0.963 47
17.857 -10.153 -0.52600002 23
38.623001 -22.032 0.27399999 57
38.587002 -22.113001 1.727 37
7.783 -4.3899999 -0.375 13
52.674999 -29.763 -0.55599999 4
10.676 -5.993 -0.30399999 14
8.1420002 -4.533 -0.384 25
57.751999 -32.213001 -0.56099999 11
58.865002 -32.959999 1.562 13
18.044001 -9.9960003 -0.49900001 27
57.886002 -32.175999 0.50199997 20
18.229 -10.182 0.83999997 39
6.1620002 -3.3859999 -0.285 0
52.57 -28.943001 -0.46900001 1
18.173 -10.044 0.49399999 38
18.233 -9.9680004 -0.48899999 23
18.113001 -9.9370003 0.17 36
12.875 -7.0970001 0.602 2
7.717 -4.1830001 -0.35100001 17
18.066999 -9.8129997 -0.147 36
18.257 -9.9569998 0.50800002 6
18.046 -9.7349997 -0.47 54
18.226 -9.8669996 0.184 18
62.803001 -34.165001 2.9749999 22
7.7379999 -4.138 -0.345 40
33.195 -17.790001 -0.24699999 33
47.050999 -25.316999 1.342 34
7.6719999 -4.0819998 -0.193 13
46.979 -25.086 0.50599998 46
47.077 -25.266001 2.2539999 37
7.973 -4.2059999 -0.34900001 23
32.509998 -17.187 -0.219 28
47.02 -24.958 1.368 42
18.271 -9.5889997 -0.44800001 7
47.153999 -24.837 0.537 39
47.057999 -24.91 2.28 51
7.8790002 -4.098 -0.33899999 12
32.512001 -16.948999 -0.198 52
46.598 -24.393 1.38 14
32.777 -16.962999 -0.78200001 143
32.716999 -16.995001 0.39199999 17
7.802 -4.0009999 -0.33000001 40
32.904999 -16.914 -0.18000001 5
8.1190004 -4.1420002 -0.18799999 0
7.7870002 -3.987 0.097000003 0
15.286 -7.868 0.75400001 8
7.9369998 -4.0120001 -0.331 25
32.200001 -16.318001 -0.15700001 99
46.587002 -23.708 1.429 9
32.338001 -16.263 -0.73000002 25
7.8410001 -3.9579999 0.102 1
8.1000004 -4.1100001 0.403 65
7.9250002 -3.948 -0.32499999 24
32.391998 -16.177 -0.14 38
8.1190004 -4.072 0.252 31
14.473 -7.1739998 -0.31799999 2
7.8509998 -3.9059999 0.106 16
8.132 -4.0669999 0.40799999 17
7.835 -3.8469999 -0.31600001 16
7.8730001 -3.8740001 -0.029999999 11
8.1230001 -4.0149999 0.25600001 47
7.9419999 -3.878 -0.17 0
7.9260001 -3.885 0.111 38
14.32 -7.0560002 0.72299999 5
7.881 -3.812 -0.31400001 61
7.875 -3.819 -0.026000001 53
63.147999 -30.754 2.017 34
7.881 -3.7909999 -0.164 92
7.9780002 -3.8529999 0.115 46
14.359 -6.9699998 0.73100001 0
7.8189998 -3.7249999 -0.30700001 45
7.8800001 -3.763 -0.022 36
63.257999 -30.346001 2.0409999 36
7.8969998 -3.7420001 -0.161 55
7.8940001 -3.7550001 0.117 50
14.059 -6.7220001 0.72000003 3
7.987 -3.747 -0.30899999 19
7.8579998 -3.6960001 -0.018999999 42
14.329 -6.7690001 0.46799999 9
30.290001 -14.132 -0.60399997 46
7.9299998 -3.714 0.12 47
14.253 -6.711 0.73299998 20
8.1040001 -3.744 -0.31 8
7.9070001 -3.6619999 -0.016000001 44
14.262 -6.6339998 0.47 34
30.226 -13.884 -0.58999997 40
7.8790002 -3.6329999 0.122 52
13.432 -6.2259998 0.69499999 9
7.9109998 -3.5969999 -0.29800001 19
7.9959998 -3.6459999 -0.013 4
7.881 -3.608 0.26100001 16
30.343 -13.72 -0.57999998 42
7.9000001 -3.586 0.125 50
14.235 -6.4949999 0.74000001 37
13.304 -5.9530001 -0.49599999 46
30.27 -13.582 -0.039000001 51
7.9060001 -3.562 0.26499999 12
30.629 -13.627 -0.57300001 23
7.9390001 -3.5469999 0.12800001 11
14.112 -6.3369999 0.73500001 24
6.7950001 -2.9920001 -0.25 11
14.316 -6.3210001 -0.014 39
7.8759999 -3.4920001 0.26499999 40
28.594 -12.517 -0.52499998 8
31.181999 -13.705 0.51300001 12
13.949 -6.1620002 0.73000002 12
7.8400002 -3.395 -0.28600001 4
14.391 -6.25 -0.0099999998 7
7.9039998 -3.448 0.26800001 43
14.362 -6.184 -0.25799999 22
53.179001 -22.992001 0.889 106
7.8860002 -3.427 0.414 1
12.159 -5.1789999 -0.43900001 35
28.473 -12.161 -0.011 32
7.915 -3.395 0.27000001 1
14.405 -6.099 -0.255 0
53.300999 -22.662001 0.90100002 100
7.8850002 -3.369 0.414 30
10.394 -4.3540001 -0.37200001 8
28.551001 -11.992 -0.0040000002 34
66.763 -28.163 2.2920001 22
36.633999 -15.25 -0.63800001 1
53.441002 -22.337 0.91600001 103
7.8889999 -3.3139999 0.41600001 47
7.7729998 -3.2 -0.27500001 10
28.568001 -11.795 0.001 59
74.307999 -30.812 2.5599999 22
7.8039999 -3.1930001 -0.133 7
53.532001 -21.993999 0.92799997 97
7.9089999 -3.266 0.41800001 7
7.671 -3.1029999 -0.26899999 1
14.188 -5.756 0.0040000002 36
79.260002 -32.294998 2.744 19
13.924 -5.5970001 -0.235 1
14.074 -5.6820002 0.245 19
72.518997 -29.424999 3.8369999 17
8.224 -3.2690001 -0.287 40
53.761002 -21.431 0.027000001 93
13.977 -5.5949998 0.48500001 20
14.714 -5.8119998 -0.245 1
53.773998 -21.325001 0.949 91
13.898 -5.539 0.736 17
8.198 -3.2 -0.28400001 4
53.877998 -21.096001 0.035 96
13.827 -5.4369998 0.48100001 0
13.989 -5.427 -0.23 4
53.888 -20.99 0.958 97
13.872 -5.4299998 0.736 21
7.1209998 -2.73 -0.244 5
40.679001 -15.639 0.034000002 36
54.013 -20.853001 1.886 10
13.969 -5.3200002 -0.227 0
53.997002 -20.649 0.96399999 93
13.752 -5.2849998 0.72899997 4
11.873 -4.4689999 -0.405 32
40.792999 -15.397 0.039999999 151
53.928001 -20.440001 1.886 2
40.828999 -15.263 -0.65600002 69
54.085999 -20.299999 0.97299999 28
13.861 -5.2280002 0.736 9
8.0559998 -2.9749999 -0.273 6
54.061001 -20.107 1.891 7
19.961 -7.323 -0.317 1
20.024 -7.375 0.361 50
13.762 -5.0929999 0.73000002 3
8.0880003 -2.931 -0.273 4
40.165001 -14.593 0.048999999 40
54.231998 -19.787001 1.901 9
40.241001 -14.478 -0.634 152
54.337002 -19.631001 0.98400003 19
14.329 -5.2010002 0.75999999 16
10.223 -3.635 -0.34299999 7
40.228001 -14.358 0.052999999 47
54.300999 -19.461 1.905 9
40.446999 -14.304 -0.63499999 152
54.414001 -19.334 0.98900002 62
14.486 -5.1760001 0.76800001 5
12.03 -4.21 -0.40200001 39
108.298 -38.040001 0.15099999 44
54.470001 -19.226 1.909 9
54.549999 -18.997999 -0.84899998 29
54.529999 -19.084 0.99299997 96
14.456 -5.0869999 0.76599997 1
12.345 -4.2550001 -0.41100001 34
54.608002 -18.891001 0.079000004 21
54.710999 -19.014 1.919 1
54.623001 -18.733 -0.84600002 35
54.613998 -18.819 0.99400002 104
74.736 -25.893 3.961 26
11.995 -4.0710001 -0.398 28
54.710999 -18.629 0.082000002 82
64.573997 -22.097 2.2650001 9
48.050999 -16.223 -0.74199998 1
50.353001 -17.079 0.91900003 8
61.366001 -20.931 3.25 15
10.145 -3.3889999 -0.336 3
54.814999 -18.374001 0.083999999 84
58.081001 -19.562 2.0350001 47
49.952999 -16.597 -0.76599997 9
49.386002 -16.489 0.90200001 18
46.324001 -15.55 2.4489999 38
9.9049997 -3.256 -0.32699999 13
54.911999 -18.115999 0.086000003 78
58.269001 -19.311001 2.0420001 13
46.453999 -15.189 -0.70999998 8
49.75 -16.344 0.90700001 17
46.397999 -15.324 2.4519999 20
12.049 -3.8970001 -0.39700001 30
50.141998 -16.275 0.078000002 5
64.821999 -21.138 2.27 16
46.466999 -14.947 -0.70899999 75
46.523998 -15.035 0.85000002 40
46.431 -15.087 2.451 9
11.72 -3.7279999 -0.38600001 35
50.729 -16.194 0.082000002 8
46.394001 -14.882 1.623 29
46.485001 -14.705 -0.70599997 19
49.905998 -15.864 0.91100001 16
73.265999 -23.412001 3.862 33
7.335 -2.2950001 -0.23999999 3
55.176998 -17.323999 0.090000004 80
72.984001 -23.018 2.5510001 40
47.847 -14.885 -0.72500002 4
47.868 -14.961 0.87199998 4
73.742996 -23.167999 3.8840001 30
12.568 -3.8659999 -0.41100001 39
48.41 -14.943 0.078000002 6
73.135002 -22.679001 2.553 41
48.140999 -14.722 -0.72899997 14
49.646 -15.253 0.90499997 21
73.457001 -22.688999 3.8640001 27
7.079 -2.1400001 -0.23100001 3
55.352001 -16.792 0.090999998 68
73.552002 -22.419001 2.5639999 29
48.147999 -14.47 -0.72600001 21
50.616001 -15.284 0.92199999 2
73.334 -22.259001 3.849 22
12.384 -3.6789999 -0.40400001 14
48.411999 -14.433 0.079999998 17
42.206001 -12.64 1.4680001 4
48.106998 -14.207 -0.72399998 19
49.084 -14.562 0.89099997 8
74.615997 -22.249001 3.9130001 24
9.1499996 -2.671 -0.29800001 5
55.537998 -16.264999 0.090000004 80
90.967003 -26.761 3.1619999 12
48.159 -13.972 -0.72399998 18
53.570999 -15.61 0.972 24
43.306999 -12.685 2.267 4
11.312 -3.243 -0.368 20
55.641998 -16.002001 0.090999998 85
42.618 -12.314 1.478 9
48.618 -13.85 -0.73199999 12
53.192001 -15.222 0.963 8
76.141998 -21.898001 3.977 25
11.338 -3.191 -0.36899999 25
55.737999 -15.74 0.090000004 81
42.553001 -12.07 1.472 12
48.761002 -13.635 -0.73299998 7
51.021999 -14.332 0.921 10
44.002998 -12.421 2.296 3
11.433 -3.158 -0.37099999 20
55.887001 -15.49 0.088 40
35.971001 -10.013 1.243 1
28.542 -7.8340001 -0.42899999 1
44.348999 -12.227 0.79799998 4
42.613998 -11.805 2.2190001 10
9.8129997 -2.6600001 -0.31900001 0
28.66 -7.7930002 0.045000002 10
35.993999 -9.8319998 1.2410001 6
28.622 -7.7069998 -0.43099999 44
28.656 -7.75 0.51499999 62
28.68 -7.7940001 1.49 2
11.438 -3.0409999 -0.37099999 36
52.275002 -13.945 0.081 17
28.691 -7.6869998 0.986 55
28.684 -7.5739999 -0.43099999 2
44.27 -11.743 0.79400003 5
32.547001 -8.6730003 1.688 6
11.634 -3.033 -0.377 16
52.162998 -13.643 0.078000002 5
43.273998 -11.366 1.4859999 14
41.339001 -10.703 -0.62199998 10
43.959999 -11.432 0.78500003 5
33.648998 -8.7910004 1.742 8
12.099 -3.092 -0.39199999 8
52.305 -13.408 0.078000002 14
33.300999 -8.5740004 1.141 2
36.189999 -9.1820002 -0.54500002 40
43.775002 -11.155 0.77999997 5
33.201 -8.5 1.714 10
10.112 -2.5320001 -0.32800001 3
41.728001 -10.482 0.059999999 5
33.290001 -8.3979998 1.137 7
39.145 -9.7290001 -0.58999997 41
43.876999 -10.955 0.77899998 15
34.529999 -8.6610003 1.78 11
9.3190002 -2.286 -0.30199999 2
36.389 -8.9519997 0.050000001 5
43.368 -10.713 1.479 9
39.227001 -9.5489998 -0.59200001 28
50.662998 -12.387 0.89499998 5
33.951 -8.3380003 1.747 8
10.866 -2.609 -0.352 0
39.688 -9.5579996 0.054000001 8
33.494999 -8.1009998 1.1390001 9
33.775002 -8.0480003 -0.51099998 16
36.598999 -8.7580004 0.64499998 7
33.819 -8.1300001 1.737 19
16.462 -3.869 -0.53399998 2
39.873001 -9.3990002 0.052999999 5
29.492001 -6.98 1 2
39.457001 -9.1990004 -0.597 4
36.806 -8.6190004 0.64700001 4
34.298 -8.0670004 1.757 14
16.35 -3.7590001 -0.52999997 2
39.327999 -9.0679998 0.048999999 4
29.476999 -6.8239999 0.99699998 13
32.078999 -7.316 -0.486 28
28.947001 -6.6290002 0.50599998 18
34.330002 -7.895 1.755 24
16.139999 -3.6289999 -0.523 1
32.384998 -7.3000002 0.039999999 16
28.676001 -6.4910002 0.96799999 6
39.391998 -8.7819996 -0.59899998 14
29.096001 -6.513 0.50700003 4
34.541 -7.7659998 1.762 35
16.209 -3.562 -0.52600002 1
28.84 -6.355 0.034000002 1
28.657 -6.3390002 0.96399999 10
39.5 -8.6029997 -0.60100001 9
29.333 -6.4159999 0.509 17
32.390999 -7.1149998 1.648 22
16.281 -3.494 -0.528 1
32.382 -6.9689999 0.035999998 13
29.729 -6.4219999 0.99800003 9
39.526001 -8.4090004 -0.60299999 5
44.750999 -9.559 0.773 19
33.054001 -7.0890002 1.679 23
17.927 -3.757 -0.58200002 32
28.884001 -6.0700002 0.030999999 6
34.006001 -7.1719999 1.1390001 12
53.389999 -11.087 -0.81699997 7
29.638 -6.178 0.50999999 2
25.469 -5.3309999 1.291 4
17.482 -3.575 -0.56800002 30
28.917 -5.9289999 0.029999999 17
33.958 -6.9879999 1.133 14
28.686001 -5.8099999 -0.43900001 2
39.452999 -8.0240002 0.67699999 13
25.462 -5.1989999 1.2869999 11
17.101999 -3.411 -0.55599999 29
29.159 -5.8309999 0.028000001 6
34.033001 -6.8299999 1.133 7
33.063 -6.5300002 -0.50700003 4
28.226999 -5.5970001 0.48199999 8
25.341999 -5.0430002 1.279 21
16.788 -3.2639999 -0.546 35
29.622999 -5.7729998 0.027000001 25
32.066002 -6.27 1.0650001 11
29.364 -5.651 -0.45199999 16
29.941999 -5.7839999 0.509 17
31.264999 -6.0619998 1.575 12
16.457001 -3.1170001 -0.53600001 34
29.649 -5.6269999 0.026000001 4
28.549 -5.4369998 0.94499999 1
29.448 -5.52 -0.45500001 8
32.389 -6.0929999 0.54900002 13
25.381001 -4.7909999 1.275 10
16.156 -2.9779999 -0.52600002 40
29.174999 -5.3909998 0.024 5
29.135 -5.401 0.96200001 27
29.478001 -5.3759999 -0.456 4
32.382 -5.927 0.546 9
30.917 -5.677 1.551 7
15.837 -2.8399999 -0.51599997 41
57.601002 -10.352 0.043000001 88
25.813 -4.6529999 0.85100001 18
26.632999 -4.723 -0.41299999 24
28.945 -5.1500001 0.486 5
30.649 -5.4720001 1.534 8
15.413 -2.6860001 -0.50300002 43
26.605 -4.6459999 0.018999999 9
25.919001 -4.5409999 0.852 12
26.561001 -4.5770001 -0.41299999 64
33.734001 -5.8330002 0.565 1
25.615 -4.4419999 1.279 1
15.163 -2.566 -0.495 40
26.591999 -4.5110002 0.017000001 46
26.739 -4.5489998 0.87599999 13
26.872999 -4.4949999 -0.419 15
26.547001 -4.4559999 0.442 34
30.483999 -5.131 1.52 2
14.905 -2.448 -0.48699999 42
26.645 -4.3850002 0.015 2
26.615 -4.3920002 0.87099999 39
26.833 -4.3540001 -0.419 6
26.649 -4.3390002 0.442 7
30.521 -4.9829998 1.5190001 6
14.679 -2.3380001 -0.47999999 39
51.441002 -8.2069998 0.028000001 21
32.912998 -5.2659998 1.074 44
18.188999 -2.8599999 -0.285 15
26.724001 -4.2160001 0.442 24
26.476 -4.1880002 1.314 8
14.478 -2.233 -0.47299999 37
58.092999 -8.9779997 0.028999999 93
32.359001 -5.013 1.053 25
18.077 -2.7520001 -0.28299999 13
26.768999 -4.0879998 0.44 7
26.440001 -4.0489998 1.3099999 19
14.058 -2.099 -0.46000001 40
58.193001 -8.7010002 0.025 91
32.405998 -4.8559999 1.052 23
18.225 -2.684 -0.28600001 1
53.404999 -7.8889999 0.875 8
32.243 -4.7729998 1.595 6
13.967 -2.0150001 -0.458 37
43.013 -6.2150002 0.017000001 13
32.502998 -4.7080002 1.053 11
17.811001 -2.5339999 -0.28099999 0
32.099998 -4.5799999 0.52499998 3
33.199001 -4.7459998 1.6390001 22
13.724 -1.9119999 -0.44999999 39
58.418999 -8.1499996 0.021 74
17.909 -2.503 0.57800001 18
36.137001 -4.961 -0.57099998 12
34.256001 -4.7160001 0.55800003 0
17.674 -2.438 0.87099999 33
13.139 -1.765 -0.43099999 39
53.938999 -7.2550001 0.016000001 10
17.934999 -2.4159999 0.57800001 35
17.027 -2.253 -0.26899999 2
34.202 -4.5370002 0.55400002 1
26.839001 -3.566 1.321 44
12.994 -1.681 -0.42699999 37
46.037998 -5.961 0.012 4
18.045 -2.3410001 0.58099997 3
17.365999 -2.211 -0.27599999 3
18.205999 -2.323 0.294 13
32.071999 -4.099 1.576 8
12.748 -1.587 -0.419 36
36.291 -4.5190001 0.0080000004 11
31.986 -3.9890001 1.027 27
16.867001 -2.063 -0.26800001 1
18.223 -2.2349999 0.29300001 37
17.649 -2.1670001 0.86500001 13
12.43 -1.485 -0.40799999 35
36.75 -4.3930001 0.0060000001 1
18.098 -2.165 0.57999998 7
14.878 -1.747 -0.237 1
18.181999 -2.1389999 0.29100001 27
17.652 -2.0780001 0.86500001 29
12.352 -1.414 -0.40599999 38
18.325001 -2.0999999 0.0020000001 47
17.966999 -2.0599999 0.57499999 27
16.382 -1.842 -0.26199999 32
18.226 -2.053 0.29100001 33
18.034 -2.0320001 0.88200003 36
12.339 -1.352 -0.40599999 38
16.308001 -1.7869999 0.001 16
19.000999 -2.0829999 0.60600001 21
16.371 -1.7589999 -0.26199999 46
16.487 -1.775 0.26300001 0
18.693001 -2.013 0.91299999 1
11.916 -1.247 -0.39199999 37
16.312 -1.706 0 44
18.716 -1.959 0.59600002 33
16.343 -1.675 -0.26199999 44
16.51 -1.6950001 0.26199999 9
18.674999 -1.916 0.91100001 43
12.212 -1.217 -0.40200001 43
16.339001 -1.6289999 0 20
18.667999 -1.86 0.59399998 48
16.389 -1.599 -0.26300001 44
16.424999 -1.604 0.25999999 26
18.684 -1.824 0.91000003 17
11.82 -1.12 -0.389 10
16.496 -1.562 0 26
33.479 -3.1689999 1.064 23
16.384001 -1.517 -0.26300001 29
16.625 -1.5420001 0.26300001 35
18.646999 -1.727 0.90700001 43
11.503 -1.033 -0.37900001 37
16.417 -1.473 0 48
44.418999 -3.984 1.409 10
16.079 -1.41 -0.25799999 39
16.459999 -1.444 0.25999999 58
18.673 -1.635 0.90799999 9
11.737 -0.99699998 -0.38699999 36
16.155001 -1.37 -0.001 53
26.948999 -2.2820001 0.85399997 32
16.112 -1.3329999 -0.259 42
16.714001 -1.383 0.26300001 17
26.542 -2.1919999 1.289 1
11.595 -0.92699999 -0.382 42
16.528999 -1.319 -0.001 51
42.161999 -3.359 1.334 18
16.237 -1.2640001 -0.26199999 33
16.858999 -1.312 0.26499999 59
44.698002 -3.467 2.1689999 17
11.922 -0.89499998 -0.39300001 41
16.455 -1.232 -0.001 49
27.827 -2.079 0.88 17
16.033001 -1.168 -0.25799999 40
16.566999 -1.207 0.25999999 29
44.210999 -3.207 2.1440001 14
11.294 -0.792 -0.373 41
16.399 -1.147 -0.0020000001 47
41.221001 -2.8740001 1.302 25
15.864 -1.077 -0.25600001 34
16.534 -1.123 0.259 33
34.168999 -2.3080001 1.656 8
11.652 -0.75999999 -0.38499999 38
16.677 -1.084 -0.0020000001 49
26.52 -1.716 0.83700001 0
16.049 -1.011 -0.259 36
16.653 -1.048 0.25999999 26
26.474001 -1.656 1.2819999 15
11.547 -0.69599998 -0.38100001 39
16.426001 -0.986 -0.0020000001 44
26.558001 -1.587 0.83700001 23
16.267 -0.94400001 -0.26300001 40
16.863001 -0.977 0.26300001 41
33.66 -1.938 1.6289999 32
11.537 -0.639 -0.38100001 36
16.763 -0.92400002 -0.0020000001 49
26.809 -1.4680001 0.84500003 30
16.450001 -0.87400001 -0.266 35
53.321999 -2.8280001 0.833 6
33.576 -1.7640001 1.624 9
11.657 -0.588 -0.38499999 37
16.719 -0.838 -0.0020000001 17
27.562 -1.373 0.86799997 22
16.594999 -0.80000001 -0.26800001 49
53.550999 -2.573 0.83700001 6
33.466 -1.591 1.618 29
11.541 -0.52600002 -0.38100001 39
16.808001 -0.75999999 -0.003 12
27.783001 -1.2460001 0.87400001 9
15.922 -0.68900001 -0.257 40
53.757999 -2.316 0.83899999 13
33.622002 -1.432 1.625 1
11.477 -0.46700001 -0.37900001 44
60.394001 -2.434 -0.011 93
26.521 -1.057 0.83499998 19
12.862 -0.493 -0.208 11
26.554001 -1.013 0.414 7
38.286999 -1.438 1.85 4
11.288 -0.403 -0.37200001 51
60.501999 -2.138 -0.0099999998 94
26.438999 -0.92299998 0.83200002 16
14.837 -0.49599999 -0.23999999 9
27.423 -0.91000003 0.428 2
38.294998 -1.247 1.85 14
11.316 -0.34900001 -0.373 43
45.962002 -1.398 -0.0070000002 15
26.472 -0.792 0.833 11
12.888 -0.36700001 -0.208 10
46.780998 -1.3200001 0.73000002 7
37.516998 -1.035 1.813 10
11.42 -0.296 -0.37599999 40
50.741001 -1.293 -0.0080000004 8
36.612999 -0.912 1.153 8
13.52 -0.31900001 -0.21799999 7
45.869999 -1.068 0.71600002 8
36.730999 -0.829 1.775 9
11.163 -0.235 -0.368 41
50.917 -1.0470001 -0.0080000004 7
36.619999 -0.73199999 1.153 30
12.941 -0.242 -0.208 4
45.942001 -0.84100002 0.71799999 7
33.853001 -0.59399998 1.636 1
11.126 -0.17900001 -0.366 40
42.748001 -0.667 -0.0049999999 17
36.355999 -0.54500002 1.145 9
16.017 -0.22 -0.25799999 18
36.324001 -0.484 0.56800002 5
35.548 -0.44800001 1.7180001 15
8.8369999 -0.098999999 -0.29100001 1
36.236 -0.38600001 -0.0040000002 2
38.056999 -0.38 1.2 3
13.111 -0.116 -0.211 1
43.09 -0.36199999 0.67500001 17
35.615002 -0.27000001 1.723 8
10.969 -0.068999998 -0.361 39
36.237 -0.208 -0.003 13
37.993 -0.192 1.198 3
12.918 -0.050000001 -0.207 2
43.105 -0.148 0.676 2
25.773001 -0.066 1.247 6
10.934 -0.015 -0.359 37
18.856001 -0.014 -0.001 0
37.879002 -0.0020000001 1.196 15
13.384 0.013 -0.214 3
36.014 0.052999999 0.56599998 11
25.833 0.061000001 1.251 12
11.003 0.037999999 -0.361 41
61.347 0.255 -0.0020000001 83
35.800999 0.17399999 1.131 18
16.1 0.094999999 -0.257 14
36.623001 0.236 0.57700002 14
25.594999 0.189 1.24 8
11.003 0.092 -0.361 40
61.452999 0.55699998 0 96
30.796 0.30399999 0.97399998 4
13.247 0.14300001 -0.211 7
37.064999 0.42399999 0.58499998 5
25.617001 0.31799999 1.242 21
10.939 0.145 -0.35800001 45
61.566002 0.86400002 0.001 71
30.643999 0.45500001 0.97100002 28
16.327999 0.257 -0.25999999 34
49.681 0.81300002 0.78600001 8
26.087 0.454 1.266 4
10.823 0.197 -0.354 46
50.356998 0.95599997 0.003 5
30.487 0.60399997 0.96700001 29
14.71 0.30399999 -0.234 5
58.34 1.245 0.926 11
26.302999 0.58999997 1.278 5
10.98 0.25400001 -0.359 39
47.785999 1.143 0.0049999999 10
30.694 0.76200002 0.97500002 28
16.636999 0.426 -0.26300001 27
47.876999 1.258 0.76200002 25
26.462 0.72500002 1.2869999 4
11.146 0.31200001 -0.36399999 42
47.693001 1.378 0.0070000002 14
26.471001 0.79000002 0.84200001 3
14.625 0.44600001 -0.23100001 2
31.704 0.99199998 0.50599998 18
26.500999 0.86000001 1.291 8
11.377 0.375 -0.37099999 40
62.009998 2.0999999 0.013 89
26.671 0.92799997 0.85000002 4
14.625 0.51899999 -0.23 12
31.486 1.142 0.505 24
26.5 0.99299997 1.2920001 16
11.633 0.44100001 -0.37900001 41
62.139999 2.4100001 0.016000001 91
27.018999 1.076 0.86299998 28
13.824 0.55900002 -0.21699999 12
27.364 1.128 0.44 19
26.382 1.12 1.288 2
11.523 0.493 -0.375 43
51.056 2.2349999 0.016000001 22
27.177 1.2180001 0.87 6
15.058 0.68300003 -0.235 11
30.861 1.426 0.498 26
26.546 1.261 1.298 13
11.627 0.55599999 -0.377 43
28.441 1.386 0.011 3
40.158001 2 1.289 1
13.457 0.67699999 -0.20999999 6
30.684999 1.572 0.498 9
26.516001 1.392 1.299 6
11.713 0.61699998 -0.37900001 39
28.833 1.548 0.013 23
30.903 1.6950001 0.99400002 12
15.236 0.84299999 -0.236 9
31.044001 1.744 0.50599998 3
32.875 1.893 1.614 17
11.583 0.66799998 -0.375 37
29.079 1.707 0.015 1
30.853001 1.847 0.995 11
14.715 0.88599998 -0.227 9
31.125 1.905 0.50999999 15
26.767 1.676 1.316 5
11.974 0.74900001 -0.38600001 43
30.787001 1.959 0.017999999 7
30.705 1.9910001 0.99299997 4
14.876 0.97000003 -0.229 17
30.797001 2.039 0.50700003 12
26.961 1.823 1.3279999 19
12.657 0.85500002 -0.40799999 42
34.140999 2.3429999 0.023 26
30.875999 2.158 1.001 27
15.061 1.057 -0.23100001 2
44.763 3.187 0.741 30
26.705999 1.942 1.318 24
12.858 0.93199998 -0.41299999 40
34.216999 2.5179999 0.025 6
30.941 2.319 1.006 12
16.799 1.263 -0.25600001 4
34.041 2.595 0.56599998 24
25.655001 1.995 1.2690001 20
12.599 0.97600001 -0.40400001 45
47.141998 3.7060001 0.039000001 13
30.969999 2.4760001 1.01 6
17.731001 1.4220001 -0.26899999 12
26.857 2.1819999 0.449 2
25.690001 2.1270001 1.274 18
12.952 1.068 -0.41499999 39
63.140999 5.2810001 0.057999998 85
30.937 2.6300001 1.012 11
17.625999 1.501 -0.266 9
26.723 2.3050001 0.449 2
25.753 2.2639999 1.28 15
12.874 1.126 -0.41100001 38
46.804001 4.1469998 0.046999998 19
25.747 2.3180001 0.84500003 2
17.662001 1.592 -0.26499999 2
26.666 2.434 0.45100001 8
26.018999 2.4189999 1.296 18
14.206 1.313 -0.45300001 45
46.689999 4.3730001 0.052000001 9
33.715 3.2060001 1.1109999 13
27.302 2.598 -0.40700001 25
26.584999 2.5610001 0.45300001 6
25.968 2.546 1.2970001 25
14.19 1.382 -0.45100001 41
39.167999 3.865 0.046999998 10
38.380001 3.8429999 1.2690001 4
25.951 2.5999999 -0.38499999 22
38.763 3.9289999 0.66399997 3
26.063 2.688 1.3049999 25
14.715 1.507 -0.46599999 42
39.342999 4.079 0.050999999 4
25.849001 2.72 0.85799998 14
25.566 2.6889999 -0.377 25
38.601002 4.1079998 0.66500002 5
25.892 2.803 1.3 22
15.348 1.648 -0.48500001 33
26.103001 2.8380001 0.035999998 151
26.395 2.911 0.87900001 5
21.198 2.335 -0.31 1
54.93 6.1240001 0.954 16
25.858999 2.931 1.302 23
15.405 1.732 -0.486 12
25.247 2.8729999 0.037999999 7
25.664 2.96 0.85799998 1
25.261999 2.911 -0.36700001 18
44.951 5.2379999 0.78600001 3
25.504999 3.0220001 1.288 6
15.264 1.793 -0.47999999 11
25.202999 2.994 0.041000001 5
37.776001 4.5510001 1.2690001 4
25.263 3.0380001 -0.36500001 19
54.651001 6.6469998 0.96200001 11
27.408001 3.388 1.3890001 9
15.267 1.869 -0.479 11
25.253 3.1289999 0.044 5
38.310001 4.8109999 1.2920001 19
25.264 3.165 -0.36199999 17
45.009998 5.7020001 0.79799998 13
26.538 3.415 1.349 2
15.293 1.95 -0.47799999 11
45.133999 5.8210001 0.083999999 7
38.673 5.053 1.3099999 10
25.67 3.346 -0.36500001 27
45.417999 5.9850001 0.81099999 8
26.646 3.5669999 1.358 2
15.198 2.0150001 -0.47400001 11
45.145 6.0500002 0.089000002 14
38.797001 5.2690001 1.319 8
30.914 4.1869998 -0.43599999 0
45.278 6.1960001 0.815 3
44.643002 6.2069998 2.283 6
15.19 2.0899999 -0.472 11
64.429001 8.9639997 0.13500001 93
44.872002 6.3249998 1.533 4
35.16 4.9390001 -0.493 14
45.632999 6.4790001 0.82700002 9
32.831001 4.7329998 1.6849999 3
15.135 2.1589999 -0.46900001 11
44.713001 6.4489999 0.1 15
45.227001 6.6059999 1.552 16
36.151001 5.263 -0.50300002 7
45.469002 6.6890001 0.83099997 2
44.436001 6.6339998 2.2880001 19
15.064 2.2260001 -0.465 11
44.863998 6.6989999 0.106 8
44.889 6.789 1.548 12
37.757999 5.6900001 -0.51999998 16
57.113998 8.6929998 1.052 6
44.222 6.8319998 2.2839999 6
15.117 2.3099999 -0.465 11
59.855999 9.2449999 0.148 40
45.115002 7.0560002 1.563 6
38.971001 6.0700002 -0.53299999 36
45.179001 7.1100001 0.83899999 15
47.006001 7.507 2.437 18
15.08 2.381 -0.46200001 11
50.070999 7.9910002 0.131 13
44.841999 7.244 1.561 7
40.006001 6.4369998 -0.542 38
44.764 7.276 0.838 11
47.255001 7.7909999 2.4590001 4
15.118 2.4649999 -0.46200001 11
50.313 8.2840004 0.138 8
44.667999 7.448 1.562 5
41.171001 6.8340001 -0.55299997 24
49.417 8.283 0.93199998 8
32.490002 5.527 1.696 3
15.244 2.562 -0.46399999 13
63.625999 10.806 0.183 38
46.866001 8.0559998 1.647 7
32.240002 5.5159998 -0.42899999 8
49.382999 8.5369997 0.93900001 13
32.709999 5.7340002 1.714 3
14.825 2.5669999 -0.44999999 42
62.942001 11.015 0.191 41
44.355999 7.8540001 1.566 8
19.478001 3.434 -0.257 1
57.127998 10.17 1.096 6
32.667 5.8959999 1.7180001 18
13.841 2.4690001 -0.419 36
56.535 10.184 0.17900001 10
44.172001 8.0530005 1.567 13
16.628 3.017 -0.21699999 2
57.249001 10.487 1.107 5
32.598 6.0570002 1.721 2
13.633 2.5009999 -0.41100001 41
56.787998 10.522 0.18799999 3
44.028 8.257 1.5700001 5
19.236 3.589 -0.248 1
51.032001 9.618 0.99599999 21
32.450001 6.1989999 1.72 7
12.388 2.3369999 -0.37200001 36
60.963001 11.617 0.211 40
34.542999 6.658 1.238 3
16.761999 3.214 -0.214 11
57.050999 11.048 1.122 6
16.316 3.2019999 0.86799997 0
12.162 2.358 -0.36399999 32
60.326 11.808 0.21799999 39
32.691002 6.4720001 1.178 6
16.166 3.184 -0.204 2
57.596001 11.453 1.143 5
16.197001 3.2650001 0.86500001 39
11.953 2.3789999 -0.35600001 33
59.723 11.999 0.22499999 43
16.191 3.2909999 0.58600003 44
16.266001 3.2880001 -0.204 11
16.188999 3.3050001 0.324 37
16.164 3.3440001 0.86699998 41
11.683 2.385 -0.347 31
16.224001 3.345 0.063000001 5
16.141001 3.3659999 0.588 40
12.264 2.543 -0.152 0
16.146999 3.381 0.32600001 45
16.200001 3.437 0.87199998 21
11.145 2.3340001 -0.329 32
16.191999 3.4230001 0.066 51
16.152 3.4530001 0.59100002 37
11.987 2.549 -0.147 10
16.141001 3.464 0.32800001 44
32.162998 6.9980001 1.739 2
11.473 2.4630001 -0.338 31
16.167999 3.503 0.068000004 47
33.226002 7.283 1.223 8
11.905 2.5940001 -0.14399999 26
16.198 3.563 0.33199999 10
32.976002 7.3499999 1.79 6
11.062 2.4319999 -0.324 30
16.165001 3.5880001 0.071000002 39
34.159 7.6680002 1.2640001 2
11.963 2.6689999 -0.14300001 50
32.733002 7.3740001 0.67799997 7
22.066999 5.0359998 1.2029999 0
11.127 2.506 -0.32499999 35
40.898998 9.2950001 0.186 26
22.077999 5.073 0.82099998 35
11.937 2.727 -0.141 28
22.084 5.0910001 0.461 62
32.869999 7.6799998 1.799 13
10.973 2.5280001 -0.31900001 35
22.066 5.131 0.103 96
32.401001 7.6209998 1.212 2
11.847 2.7690001 -0.139 29
35.771 8.4370003 0.75400001 10
32.973 7.881 1.813 3
10.743 2.5320001 -0.31099999 27
36.129002 8.5959997 0.175 23
32.277 7.7639999 1.214 2
11.815 2.823 -0.13699999 26
49.333 11.903 1.049 5
22.417999 5.4780002 1.237 7
10.591 2.553 -0.30599999 29
40.854 9.9370003 0.205 9
32.764999 8.0570002 1.24 8
11.741 2.869 -0.134 23
54.301998 13.392 1.164 4
22.341999 5.5799999 1.238 13
10.62 2.6159999 -0.30500001 34
11.789 2.9300001 0.061000001 8
11.985 3.013 0.456 0
11.746 2.9330001 -0.132 29
11.752 2.961 0.25400001 40
11.65 2.974 0.648 59
10.569 2.6589999 -0.303 54
11.897 3.0220001 0.063000001 23
11.676 2.9979999 0.44600001 91
11.589 2.9549999 -0.12899999 31
11.711 3.0150001 0.255 83
11.646 3.036 0.65100002 56
10.457 2.687 -0.29899999 33
11.658 3.023 0.064000003 51
31.531 8.2659998 1.2130001 14
11.495 2.994 -0.127 32
11.681 3.0699999 0.257 4
22.862 6.085 1.284 15
10.646 2.793 -0.303 28
11.667 3.0880001 0.066 59
31.267 8.3699999 1.209 30
11.187 2.973 -0.122 32
11.277 3.0239999 0.25 64
22.417999 6.0910001 1.2640001 18
10.363 2.7739999 -0.29300001 36
11.46 3.0969999 0.066 55
31.18 8.5159998 1.212 30
11.267 3.0550001 -0.121 33
11.253 3.0799999 0.25099999 59
14.2 3.9360001 0.80400002 13
10.673 2.915 -0.301 29
11.453 3.1570001 0.068000004 58
11.122 3.098 0.435 1
11.229 3.1070001 -0.119 28
11.355 3.1700001 0.25600001 22
14.127 3.993 0.80299997 31
10.529 2.9330001 -0.296 27
11.433 3.2130001 0.07 54
11.096 3.1530001 0.43599999 64
11.039 3.1140001 -0.116 35
11.306 3.2179999 0.257 76
10.982 3.1659999 0.62699997 62
10.576 3.003 -0.296 26
11.451 3.28 0.071999997 5
11.179 3.2379999 0.442 59
11.023 3.1689999 -0.114 30
11.6 3.3659999 0.266 59
10.951 3.2179999 0.62800002 48
10.529 3.0469999 -0.294 31
11.655 3.404 0.075000003 19
11.626 3.431 0.46200001 59
11.032 3.233 -0.113 29
11.613 3.434 0.26800001 41
11.128 3.332 0.64099997 59
10.666 3.1459999 -0.296 31
11.168 3.323 0.072999999 0
11.614 3.493 0.46399999 60
11.058 3.3010001 -0.111 30
39.306999 11.84 0.91500002 14
11.131 3.3959999 0.64399999 25
7.5609999 2.2709999 -0.20900001 6
76.377998 23.146 0.51700002 21
11.618 3.559 0.46599999 41
11.088 3.3710001 -0.11 29
37.848999 11.615 0.88800001 6
11.6 3.6040001 0.67400002 65
7.5040002 2.2950001 -0.207 4
37.442001 11.557 0.259 15
22.045 6.8769999 0.88999999 6
11.088 3.4330001 -0.109 27
21.867001 6.8319998 0.51700002 12
11.635 3.6800001 0.67900002 49
7.5630002 2.3559999 -0.208 12
21.792 6.8470001 0.154 11
22.027 6.994 0.89399999 10
11.057 3.4849999 -0.107 31
21.844 6.9460001 0.51999998 5
11.635 3.747 0.68099999 1
7.408 2.348 -0.20299999 28
27.462 8.7819996 0.198 75
37.756001 12.205 1.541 15
10.936 3.507 -0.105 29
27.431 8.8789997 0.65799999 23
21.906 7.1789999 1.289 22
7.4229999 2.3940001 -0.20299999 18
27.205 8.8540001 0.2 38
36.873001 12.128 1.512 14
11.166 3.6429999 -0.106 27
36.137001 11.901 0.87400001 10
22.177999 7.3940001 1.3099999 19
7.098 2.3299999 -0.193 14
26.889 8.9020004 0.20200001 68
22.226 7.4359999 0.91600001 1
11.081 3.6789999 -0.104 29
26.615 8.915 0.648 44
22.784 7.7290001 1.352 14
7.1989999 2.4030001 -0.19499999 19
26.597 8.9549999 0.20299999 23
36.368 12.378 1.506 20
11.086 3.743 -0.103 28
26.497999 9.0270004 0.64999998 42
22.847 7.881 1.3609999 15
6.8559999 2.3269999 -0.186 25
26.423 9.0489998 0.205 48
37.345001 12.924 1.554 13
11.185 3.839 -0.102 30
26.441 9.1590004 0.653 46
22.778 7.9879999 1.362 4
7.0760002 2.4419999 -0.191 12
26.454 9.2089996 0.20900001 24
36.325001 12.779 1.5190001 18
11.234 3.921 -0.102 27
26.516001 9.3360004 0.65899998 18
22.752001 8.1129999 1.3660001 2
6.0450001 2.1210001 -0.163 20
78.317001 27.709999 0.63 24
36.046001 12.893 1.515 15
11.262 3.994 -0.101 25
39.353001 14.082 0.98400003 4
22.73 8.2370005 1.37 2
5.8060002 2.069 -0.156 32
57.612 20.719999 0.47099999 8
24.905001 9.0509996 1.051 2
5.7080002 2.0569999 -0.050000001 0
38.272999 13.92 0.963 8
22.792 8.3920002 1.3789999 7
5.7030001 2.066 -0.153 37
46.203999 16.882999 0.38299999 19
35.743999 13.198 1.516 20
10.793 3.9530001 -0.094999999 11
45.785 16.917 1.16 22
15.252 5.711 0.926 6
5.6849999 2.0929999 -0.152 40
46.686001 17.355 0.39300001 8
25.836 9.7139997 1.101 1
5.7270002 2.1370001 -0.048999999 2
38.276001 14.422 0.97600001 7
5.4990001 2.099 0.33500001 44
5.5640001 2.0910001 -0.149 49
79.017998 29.98 0.67799997 15
15.216 5.8369999 0.65200001 1
5.6750002 2.1600001 -0.048 9
15.106 5.8070002 0.38800001 26
5.4629998 2.128 0.33500001 66
5.5469999 2.1259999 -0.148 41
15.056 5.8260002 0.131 25
5.4679999 2.1400001 0.235 52
7.0089998 2.7219999 -0.059 3
5.5180001 2.1630001 0.142 13
5.434 2.158 0.33399999 82
5.6259999 2.1989999 -0.15000001 45
37.958 14.978 0.33500001 13
5.427 2.1659999 0.235 78
6.9710002 2.76 -0.057999998 0
5.447 2.177 0.141 66
5.434 2.201 0.336 53
5.0209999 2.0009999 -0.133 37
5.4520001 2.194 0.048 46
5.4190001 2.2049999 0.235 78
5.4569998 2.2030001 -0.045000002 35
5.414 2.2060001 0.141 71
5.5279999 2.283 0.34299999 30
5.0159998 2.0380001 -0.133 48
5.408 2.2179999 0.048999999 71
5.4260001 2.25 0.237 47
5.4250002 2.2320001 -0.045000002 70
5.3959999 2.2409999 0.142 52
5.355 2.253 0.33399999 31
4.6269999 1.916 -0.123 150
5.348 2.2349999 0.048 46
5.3400002 2.257 0.234 52
5.0419998 2.1140001 -0.041000001 7
5.3460002 2.2620001 0.141 70
5.2789998 2.2639999 0.33000001 60
4.8189998 2.033 -0.12800001 48
5.3099999 2.2609999 0.048999999 71
5.2859998 2.2750001 0.233 77
4.6009998 1.965 -0.037999999 150
5.2930002 2.2820001 0.14 92
5.2649999 2.3 0.331 66
5.3449998 2.2969999 -0.142 57
5.2160001 2.2620001 0.048 27
5.2800002 2.3150001 0.233 96
4.7069998 2.0469999 -0.037999999 51
5.2909999 2.323 0.141 76
5.277 2.3469999 0.333 39
4.756 2.0810001 -0.127 88
4.6110001 2.036 0.043000001 38
5.303 2.368 0.235 46
4.7620001 2.109 -0.039000001 83
5.3140001 2.3759999 0.142 41
23.761 10.764 1.5039999 8
5.3330002 2.3759999 -0.14300001 47
4.5900002 2.063 0.043000001 150
22.319 10.146 0.995 9
11.468 5.1700001 -0.094999999 14
33.261002 15.138 0.89499998 47
23.297001 10.743 1.48 5
5.586 2.533 -0.15000001 36
4.5619998 2.0880001 0.043000001 0
22.895 10.596 1.024 2
11.579 5.3140001 -0.096000001 5
33.140999 15.355 0.89399999 49
22.214001 10.425 1.415 23
5.79 2.6719999 -0.156 26
33.287998 15.502 0.31299999 3
22.782 10.729 1.021 8
7.4829998 3.4949999 -0.061999999 0
22.889999 10.792 0.61900002 4
22.437 10.717 1.433 15
5.4289999 2.55 -0.147 33
33.657001 15.949 0.31799999 46
22.596001 10.827 1.015 6
12.502 5.9390001 -0.105 1
22.972 11.017 0.62199998 1
22.59 10.978 1.446 15
5.915 2.826 -0.161 29
33.467999 16.135 0.31400001 53
23.316 11.367 1.05 34
12.425 6.0050001 -0.106 5
44.445 21.684 1.206 12
26.945 13.318 1.729 2
5.8280001 2.832 -0.15899999 37
51.941002 25.468 0.48500001 5
22.611 11.211 1.0190001 13
7.5799999 3.7260001 -0.064999998 0
44.733002 22.198 1.212 12
22.354 11.239 1.437 8
5.8280001 2.881 -0.161 34
11.645 5.8060002 0.108 0
22.972 11.582 1.0369999 7
7.5310001 3.7639999 -0.066 6
46.417 23.421 1.257 9
21.851999 11.172 1.4069999 2
4.4499998 2.2360001 -0.123 4
51.373001 26.049 0.47099999 20
23.233 11.912 1.049 10
8.4790001 4.309 -0.075000003 0
22.014999 11.294 0.59600002 2
24.615999 12.794 1.587 9
24.225 12.486 0.219 6
22.707001 11.835 1.026 4
8.5530005 4.4190001 -0.078000002 7
21.837999 11.389 0.58899999 2
21.945 11.596 1.416 7
4.4489999 2.3099999 -0.126 46
24.107 12.631 0.21600001 58
22.356001 11.843 1.0089999 3
7.4050002 3.888 -0.068999998 0
21.650999 11.476 0.58200002 4
21.85 11.734 1.411 22
4.5700002 2.4119999 -0.13 27
24.35 12.967 0.213 6
22.354 12.037 1.008 3
8.5349998 4.5560002 -0.081 5
23.934 12.892 0.64200002 18
22.563 12.313 1.4579999 6
5.8270001 3.125 -0.168 34
30.110001 16.292 0.25799999 2
22.881001 12.518 1.031 7
7.3699999 3.997 -0.071999997 18
23.829 13.043 0.63499999 19
21.676001 12.022 1.401 8
24.070999 13.233 0.20200001 9
22.683001 12.607 1.02 3
7.3720002 4.0609999 -0.074000001 25
53.866001 29.951 1.426 14
22.445 12.646 1.45 9
4.1690001 2.3080001 -0.123 3
30.893999 17.254 0.25099999 10
22.599001 12.762 1.0140001 6
7.2870002 4.079 -0.075000003 24
30.768999 17.379 0.81 29
22.353001 12.791 1.442 6
4.3720002 2.4579999 -0.131 30
30.885 17.52 0.243 14
23.275999 13.35 1.041 39
7.1690001 4.0749998 -0.077 39
39.942001 22.915001 1.041 10
21.660999 12.591 1.396 6
2.036 1.163 -0.061999999 1
13.353 7.6919999 0.101 0
23.198 13.512 1.033 3
7.1999998 4.1560001 -0.079999998 35
49.966999 29.110001 1.29 14
22.289 13.157 1.434 3
5.6550002 3.28 -0.17399999 37
54.692001 31.997 0.39500001 18
24.853001 14.701 1.102 13
6.7509999 3.9579999 -0.078000002 33
55.172001 32.639 1.4119999 12
22.098 13.243 1.419 7
5.7150002 3.365 -0.17900001 33
39.631001 23.540001 0.27200001 5
20.961 12.587 0.92400002 2
6.9429998 4.132 -0.082999997 38
38.956001 23.398001 0.98299998 38
21.672001 13.188 1.387 4
3.0910001 1.848 -0.097999997 4
36.956001 22.285999 0.23999999 8
20.888 12.733 0.91600001 1
6.802 4.1090002 -0.083999999 31
38.900002 23.716 0.96799999 45
25.604 15.815 1.6339999 2
3.1010001 1.882 -0.1 13
36.999001 22.649 0.223 3
20.937 12.958 0.912 3
6.8610001 4.2080002 -0.089000002 25
49.158001 30.421 1.207 4
9.1379995 5.7290001 0.58099997 15
3.0899999 1.904 -0.102 18
36.771 22.844999 0.204 8
20.893999 13.122 0.903 2
6.612 4.1160002 -0.089000002 37
24.201 15.201 0.583 2
9.1120005 5.7989998 0.57700002 37
3.0910001 1.933 -0.104 35
21.538 13.58 0.109 2
9.0939999 5.7950001 0.389 18
6.7579999 4.2690001 -0.094999999 32
24.061001 15.335 0.56800002 19
23.434 15.131 1.476 6
3.487 2.2130001 -0.12 11
21.4 13.693 0.096000001 24
9.0469999 5.8509998 0.38299999 69
2.9790001 1.909 -0.044 4
21.865999 14.14 0.50599998 2
23.658001 15.498 1.482 24
2.984 1.921 -0.105 22
21.215 13.772 0.082999997 34
9.0100002 5.9120002 0.37799999 1
2.9749999 1.9349999 -0.045000002 3
9.0220003 5.9190001 0.20299999 55
21.584 14.346 1.344 1
3.747 2.448 -0.134 0
21.063999 13.872 0.07 32
23.788 15.833 0.98699999 19
6.677 4.4050002 -0.107 32
8.9820004 5.9780002 0.197 39
21.459999 14.469 1.327 6
5.2659998 3.49 -0.193 38
8.9779997 5.9980001 0.023 13
20.899 14.112 0.85600001 12
6.1459999 4.1129999 -0.103 28
40.525002 27.358999 0.86900002 54
22.649 15.487 1.39 8
3.4360001 2.3099999 -0.12899999 0
8.9359999 6.0549998 0.016000001 70
39.078999 26.761999 1.5779999 20
6.46 4.3850002 -0.114 31
44.323002 30.348 0.917 12
27.157 18.834999 1.652 14
4.2420001 2.8929999 -0.163 34
7.5029998 5.1560001 0.0080000004 1
37.617001 26.122999 1.495 16
6.362 4.3800001 -0.118 30
47.757 33.158001 0.954 13
22.375999 15.736 1.348 2
2.9949999 2.0710001 -0.118 35
7.428 5.1760001 0.0020000001 1
31.007999 21.837999 1.212 16
2.9860001 2.085 -0.057999998 0
55.886002 39.346001 1.077 16
22.368 15.949 1.334 2
3.5639999 2.4990001 -0.14399999 36
7.3940001 5.224 -0.0040000002 12
24.371 17.4 0.93400002 28
2.9449999 2.085 -0.059999999 0
30.872 22.038 0.56800002 17
22.169001 16.028 1.308 7
3.507 2.493 -0.145 40
7.3709998 5.2800002 -0.0099999998 18
33.574001 24.299999 1.262 25
3.543 2.5420001 -0.075999998 0
24.284 17.572001 0.42500001 35
22.087999 16.187 1.2869999 3
3.5580001 2.5650001 -0.152 28
9.198 6.6799998 -0.022 1
24.452 17.941999 0.898 30
5.6440001 4.1069999 -0.127 33
38.452999 28.205 0.63999999 19
24.462999 18.17 1.4069999 20
3.4790001 2.5420001 -0.152 30
7.6700001 5.6459999 -0.026000001 0
24.452999 18.184999 0.87699997 18
3.46 2.552 -0.082000002 0
38.066002 28.301001 0.59399998 24
30.226 22.754999 1.7130001 5
3.5090001 2.5999999 -0.15800001 31
5.5219998 4.1199999 -0.025 3
33.362 25.142 1.165 18
5.5450001 4.145 -0.138 31
33.293999 25.084 0.48500001 11
29.916 22.820999 1.669 9
3.3789999 2.5369999 -0.15700001 33
7.0149999 5.3039999 -0.039999999 1
33.141998 25.311001 1.124 18
5.6009998 4.243 -0.146 42
8.8120003 6.7280002 0.119 24
24.120001 18.642 1.323 2
3.47 2.6400001 -0.16599999 30
8.7309999 6.6890001 -0.059999999 27
8.5109997 6.586 0.27900001 1
5.375 4.1269999 -0.147 32
8.5690002 6.6290002 0.105 18
32.305 25.299 1.739 17
5.8889999 4.572 -0.048 5
8.3439999 6.54 0.26499999 2
5.1859999 4.0339999 -0.149 28
8.302 6.506 0.092 32
32.053001 25.424999 1.692 10
3.701 2.892 -0.18799999 30
6.4619999 5.0819998 -0.061000001 18
7.9559999 6.3179998 0.243 8
5.322 4.1939998 -0.16 27
8.3439999 6.6230001 0.082000002 25
31.804001 25.551001 1.643 11
3.2690001 2.5880001 -0.171 30
6.744 5.3720002 -0.072999999 31
8.2969999 6.6729999 0.243 4
4.3920002 3.506 -0.139 27
8.2320004 6.619 0.068999998 28
31.427999 25.573999 1.586 4
3.865 3.0999999 -0.208 34
6.1469998 4.96 -0.075999998 26
8.2139997 6.6900001 0.23 1
5.0159998 4.0560002 -0.167 33
6.4569998 5.2579999 0.045000002 0
31.756001 26.165001 1.563 3
3.6900001 2.9979999 -0.205 26
6.369 5.2049999 -0.089000002 28
6.4050002 5.283 0.17 11
5.059 4.1430001 -0.176 26
6.4109998 5.2859998 0.035999998 3
19.179001 15.998 0.91799998 2
3.7620001 3.095 -0.21600001 29
6.2509999 5.1729999 -0.097000003 25
4.8299999 4.006 -0.177 28
6.3730001 5.3210001 0.025 22
19.198999 16.214001 0.89200002 12
3.664 3.053 -0.21699999 30
5.631 4.7179999 -0.096000001 26
9.625 8.1359997 0.227 1
4.8460002 4.0700002 -0.186 28
6.349 5.3660002 0.015 17
19.177 16.392 0.86299998 15
3.701 3.1240001 -0.226 28
5.75 4.8779998 -0.109 27
4.776 4.0609999 -0.192 28
5.4039998 4.6230001 0.003 0
19.070999 16.496 0.82800001 11
3.7550001 3.2090001 -0.237 27
6.5630002 5.6350002 -0.13600001 29
37.832001 32.757999 0.76999998 16
4.4619999 3.8410001 -0.189 29
9.1210003 7.8969998 -0.0099999998 28
19.013 16.641001 0.796 20
3.6500001 3.158 -0.23800001 26
6.0019999 5.2160001 -0.13600001 28
9.066 7.9429998 0.168 4
4.447 3.8740001 -0.197 27
7.1589999 6.2719998 -0.021 0
18.871 16.712 0.75599998 9
3.1240001 2.7360001 -0.211 20
6.0669999 5.336 -0.15000001 36
7.408 6.5669999 0.124 10
4.348 3.8340001 -0.20100001 23
7.2810001 6.454 -0.035 22
7.3940001 6.6230001 0.28299999 0
3.0539999 2.707 -0.213 25
5.7480001 5.1149998 -0.154 27
6.5840001 5.9039998 0.097000003 7
4.191 3.7390001 -0.204 24
7.0300002 6.3049998 -0.048 28
7.3449998 6.6550002 0.26800001 8
3.224 2.892 -0.23199999 23
5.4710002 4.9250002 -0.15800001 25
6.9330001 6.2870002 0.089000002 22
4.1459999 3.743 -0.211 20
6.2870002 5.7030001 -0.057 25
7.112 6.5159998 0.245 11
3.2460001 2.9460001 -0.242 21
3.905 3.556 -0.121 0
6.4569998 5.9219999 0.07 24
3.5880001 3.276 -0.191 25
6.1199999 5.6139998 -0.068000004 23
7.0900002 6.5669999 0.23 16
3.306 3.036 -0.25400001 22
4.8540001 4.4710002 -0.162 19
6.2249999 5.7729998 0.052999999 25
3.8139999 3.523 -0.212 19
5.9499998 5.5190001 -0.079999998 23
7.0430002 6.5949998 0.214 14
2.9820001 2.77 -0.237 21
4.527 4.2160001 -0.162 22
6.1479998 5.763 0.039000001 24
3.902 3.645 -0.227 22
5.9109998 5.5419998 -0.093000002 23
6.6440001 6.2880001 0.186 18
3.079 2.8929999 -0.25299999 22
4.6599998 4.388 -0.17900001 23
6.0560002 5.737 0.024 23
3.7579999 3.55 -0.228 20
5.6609998 5.3649998 -0.103 30
6.4710002 6.1869998 0.167 22
2.8970001 2.7520001 -0.24600001 22
4.4559999 4.2410002 -0.182 24
5.9549999 5.7010002 0.0089999996 24
3.684 3.5179999 -0.234 21
5.6220002 5.3850002 -0.117 21
6.4169998 6.1989999 0.15000001 23
2.8410001 2.7290001 -0.249 21
4.296 4.1329999 -0.18700001 24
5.8800001 5.6869998 -0.0049999999 22
3.2579999 3.145 -0.21600001 16
4.4120002 4.2690001 -0.103 17
6.4130001 6.257 0.134 20
2.8840001 2.8010001 -0.26199999 17
4.2389998 4.1209998 -0.197 22
5.9000001 5.7639999 -0.02 19
3.5320001 3.4460001 -0.244 21
5.4429998 5.3210001 -0.142 30
6.283 6.1900001 0.115 21
2.8039999 2.753 -0.26300001 18
4.1620002 4.0869999 -0.205 23
5.7410002 5.664 -0.035 22
3.194 3.148 -0.23100001 20
5.4429998 5.3740001 -0.15800001 20
6.302 6.2670002 0.098999999 18
2.6270001 2.6059999 -0.255 20
3.849 3.8180001 -0.2 22
5.678 5.6550002 -0.050000001 23
3.0350001 3.0220001 -0.228 17
4.276 4.263 -0.13600001 20
6.2950001 6.3189998 0.081 19
2.628 2.6340001 -0.264 20
4.0609999 4.0679998 -0.22400001 24
5.6040001 5.6339998 -0.064999998 23
2.904 2.921 -0.228 22
4.2189999 4.2459998 -0.146 26
5.7989998 5.8740001 0.059 22
1.681 1.702 -0.17399999 16
3.892 3.9360001 -0.227 25
5.4809999 5.5609999 -0.081 24
2.852 2.8970001 -0.233 20
4.165 4.23 -0.15800001 7
5.7249999 5.8499999 0.041000001 21
1.9960001 2.0409999 -0.213 18
5.4190001 5.546 -0.096000001 23
2.8699999 2.9430001 -0.244 20
4.2210002 4.3249998 -0.17299999 23
5.6300001 5.8010001 0.023 23
2.1229999 2.1919999 -0.235 20
2.8239999 2.9089999 -0.183 25
5.3189998 5.4899998 -0.111 23
2.849 2.948 -0.252 20
4.4180002 4.566 -0.19499999 24
5.6409998 5.8590002 0.0060000001 21
1.954 2.0369999 -0.223 17
3.48 3.615 -0.237 28
5.0710001 5.2779999 -0.122 26
1.925 2.01 -0.177 19
4.1199999 4.2940001 -0.19599999 27
5.4809999 5.7379999 -0.0099999998 27
2.0079999 2.112 -0.236 24
3.3410001 3.5009999 -0.23899999 26
4.7459998 4.9780002 -0.13 23
1.942 2.0450001 -0.185 20
4.0380001 4.243 -0.206 22
5.3649998 5.6589999 -0.028000001 23
1.777 1.886 -0.21600001 22
3.3729999 3.5639999 -0.25400001 28
4.6849999 4.9520001 -0.14399999 28
2.0320001 2.158 -0.20100001 15
3.8399999 4.0669999 -0.20900001 24
5.3439999 5.677 -0.046 29
1.829 1.9579999 -0.229 18
2.9319999 3.122 -0.23100001 25
4.6939998 4.9970002 -0.161 24
1.844 1.974 -0.19 18
3.7909999 4.0450001 -0.22 31
5.2880001 5.6560001 -0.063000001 28
1.697 1.832 -0.219 25
2.652 2.845 -0.21799999 23
4.5780001 4.9070001 -0.17299999 30
1.888 2.0369999 -0.20200001 18
3.6800001 3.9530001 -0.227 30
5.23 5.6300001 -0.081 25
1.661 1.808 -0.222 23
1.814 1.96 -0.156 21
4.5749998 4.9369998 -0.189 23
1.938 2.1070001 -0.214 19
3.6159999 3.911 -0.236 29
5.0209999 5.4380002 -0.094999999 25
1.591 1.745 -0.219 24
1.812 1.971 -0.163 21
4.3790002 4.7550001 -0.197 27
1.786 1.956 -0.205 20
3.5639999 3.8789999 -0.24600001 27
4.7680001 5.1929998 -0.107 23
1.625 1.795 -0.23 22
1.8789999 2.0580001 -0.176 18
4.132 4.513 -0.20100001 27
1.6799999 1.853 -0.199 18
3.4549999 3.783 -0.252 24
4.6939998 5.1389999 -0.124 23
1.505 1.674 -0.219 21
2.158 2.378 -0.211 22
4.092 4.493 -0.214 26
1.724 1.913 -0.212 18
3.342 3.681 -0.25600001 28
4.5359998 4.9910002 -0.13600001 24
1.566 1.753 -0.235 22
2.1489999 2.3829999 -0.219 25
3.948 4.3559999 -0.222 26
1.6720001 1.8660001 -0.212 20
2.4890001 2.7550001 -0.20100001 18
4.5960002 5.0799999 -0.155 21
1.492 1.681 -0.23 22
1.778 1.982 -0.18799999 18
3.74 4.1459999 -0.22499999 24
1.654 1.857 -0.21699999 17
1.768 1.966 -0.15000001 20
4.6409998 5.1500001 -0.175 20
1.431 1.622 -0.227 25
1.755 1.966 -0.193 16
3.7030001 4.1220002 -0.237 27
1.576 1.779 -0.213 20
1.8660001 2.0840001 -0.16500001 13
4.54 5.0549998 -0.189 19
1.388 1.582 -0.227 21
1.806 2.0320001 -0.206 15
3.6719999 4.1030002 -0.25 25
1.529 1.734 -0.213 18
1.89 2.1199999 -0.175 13
4.3649998 4.8759999 -0.198 20
1.3890001 1.591 -0.233 18
1.604 1.812 -0.19 16
2.2609999 2.5339999 -0.163 5
1.485 1.692 -0.214 20
1.724 1.941 -0.167 16
4.2680001 4.7810001 -0.211 20
1.413 1.626 -0.243 19
1.589 1.802 -0.19400001 16
2.2309999 2.507 -0.169 6
1.4960001 1.71 -0.222 18
1.7029999 1.923 -0.17200001 22
3.875 4.3499999 -0.207 18
1.38 1.595 -0.244 18
1.5599999 1.775 -0.198 17
1.743 1.964 -0.139 17
1.45 1.663 -0.221 26
1.636 1.851 -0.171 22
3.654 4.1090002 -0.20900001 22
1.3049999 1.513 -0.236 17
1.601 1.826 -0.20900001 21
1.739 1.964 -0.146 18
1.4809999 1.704 -0.23199999 21
1.6799999 1.906 -0.183 18
3.6059999 4.0599999 -0.221 23
1.291 1.502 -0.23999999 19
1.551 1.773 -0.20900001 19
1.846 2.086 -0.162 11
1.474 1.701 -0.23800001 22
1.744 1.9809999 -0.197 16
3.615 4.073 -0.236 22
1.251 1.46 -0.23800001 19
1.526 1.747 -0.212 19
1.734 1.962 -0.16 13
1.419 1.64 -0.235 21
1.762 2.0039999 -0.206 16
3.543 3.993 -0.245 20
1.224 1.431 -0.23800001 17
1.4859999 1.704 -0.213 21
1.659 1.878 -0.15899999 16
1.374 1.59 -0.233 19
1.665 1.895 -0.20200001 16
3.3929999 3.8239999 -0.248 17
1.226 1.436 -0.244 17
1.451 1.664 -0.214 23
1.649 1.867 -0.16500001 20
1.35 1.564 -0.235 18
1.574 1.791 -0.197 17
1.774 1.997 -0.13600001 8
1.206 1.414 -0.245 18
1.448 1.661 -0.219 27
1.653 1.87 -0.17200001 21
1.323 1.533 -0.236 16
1.567 1.7819999 -0.20200001 19
1.76 1.979 -0.142 18
1.1059999 1.2970001 -0.229 16
1.444 1.656 -0.22499999 25
1.653 1.868 -0.178 21
1.293 1.499 -0.236 15
1.494 1.698 -0.199 21
1.761 1.977 -0.149 17
1.033 1.2130001 -0.219 14
1.454 1.6670001 -0.23199999 20
1.664 1.877 -0.186 17
1.29 1.494 -0.23999999 16
1.4859999 1.686 -0.204 20
1.865 2.089 -0.16500001 13
1.135 1.331 -0.245 17
1.447 1.6569999 -0.237 18
1.74 1.959 -0.20100001 16
1.2920001 1.495 -0.24600001 17
1.522 1.724 -0.214 18
2.0480001 2.2880001 -0.189 13
1.09 1.277 -0.23999999 20
1.376 1.572 -0.23 18
1.661 1.865 -0.198 16
1.266 1.462 -0.24600001 18
1.508 1.704 -0.21799999 18
2.0179999 2.2479999 -0.19400001 14
1.089 1.274 -0.244 17
1.372 1.564 -0.235 18
1.604 1.795 -0.197 17
1.2410001 1.431 -0.24600001 20
1.46 1.645 -0.21699999 19
2.23 2.4749999 -0.222 22
0.97799999 1.141 -0.223 14
1.354 1.54 -0.237 19
1.6799999 1.874 -0.213 18
1.216 1.397 -0.245 21
1.513 1.699 -0.23 21
1.74 1.924 -0.17900001 19
1.002 1.1670001 -0.23199999 16
1.376 1.559 -0.24600001 19
1.655 1.839 -0.215 18
1.235 1.415 -0.25400001 18
1.482 1.658 -0.23100001 20
1.883 2.072 -0.20100001 16
1.018 1.182 -0.23999999 18
1.273 1.437 -0.23199999 15
1.531 1.694 -0.204 20
1.2029999 1.374 -0.252 18
1.429 1.592 -0.227 23
1.778 1.946 -0.19499999 18
1.034 1.196 -0.24699999 18
1.293 1.4529999 -0.23999999 17
1.663 1.83 -0.228 19
1.141 1.298 -0.243 17
1.444 1.601 -0.234 19
1.936 2.109 -0.219 19
1.041 1.199 -0.25299999 18
1.286 1.438 -0.243 21
1.597 1.748 -0.22400001 18
1.12 1.268 -0.242 17
1.46 1.61 -0.242 19
1.72 1.863 -0.2 19
1.023 1.173 -0.25099999 21
1.243 1.383 -0.23899999 19
1.623 1.767 -0.23199999 20
1.097 1.235 -0.23999999 17
1.357 1.488 -0.229 20
1.734 1.8660001 -0.207 20
0.99000001 1.1289999 -0.24699999 16
1.201 1.33 -0.235 15
1.498 1.6210001 -0.219 22
1.099 1.2309999 -0.244 17
1.37 1.493 -0.235 15
1.811 1.936 -0.222 18
1.002 1.137 -0.25299999 20
1.237 1.3609999 -0.245 18
1.5140001 1.628 -0.226 21
1.11 1.2359999 -0.25 17
1.321 1.4299999 -0.23100001 17
1.7309999 1.8380001 -0.21699999 21
1.0140001 1.143 -0.259 19
1.183 1.293 -0.23800001 15
1.534 1.638 -0.233 20
1.027 1.135 -0.234 16
1.189 1.278 -0.211 15
1.748 1.842 -0.22400001 21
1.015 1.137 -0.26199999 21
